ply
format ascii 1.0
element vertex 428
property float x
property float y
property float z
property float nx
property float ny
property float nz
property float intensity
property float ring
property float return
property float label
end_header
3.7678342 -0.5625484 1.2515188 -0.42525166273117065 -0.31669461727142334 -0.8478594422340393 229.0 44.0 1.0 1.0
3.7923479 -0.52570498 1.2577678 -0.23499907553195953 -0.2753652334213257 -0.9321746230125427 244.0 44.0 1.0 1.0
3.4723001 -0.52142715 1.2583619 0.26881644129753113 -0.048939645290374756 -0.9619473814964294 205.0 45.0 1.0 1.0
3.5372469 -0.49341223 1.2799575 0.07328128814697266 -0.05124466121196747 -0.9959939122200012 255.0 45.0 1.0 1.0
3.3194513 -0.50198287 1.3050056 0.06119835749268532 -0.0336420014500618 -0.9975584149360657 255.0 46.0 1.0 1.0
3.3393018 -0.46930408 1.310809 -0.2933485209941864 -0.08524665981531143 -0.9521973133087158 255.0 46.0 1.0 1.0
3.1224253 -0.47490641 1.3273391 -0.33162420988082886 -0.032175686210393906 -0.9428626894950867 250.0 47.0 1.0 1.0
3.1564441 -0.44635451 1.3397428 -0.4714260697364807 -0.023803597316145897 -0.8815843462944031 255.0 47.0 1.0 1.0
3.0875001 0.14249581 1.4025984 -0.2085578292608261 0.07496638596057892 -0.9751326441764832 253.0 48.0 1.0 1.0
3.0967574 0.17540576 1.4075674 -0.23918300867080688 0.06926091760396957 -0.9685011506080627 238.0 48.0 1.0 1.0
2.9252336 0.1381004 1.4280977 -0.12373720854520798 -0.060171324759721756 -0.9904890060424805 255.0 49.0 1.0 1.0
2.9236355 0.1686974 1.4281071 -0.13738729059696198 -0.03679751604795456 -0.9898337125778198 255.0 49.0 1.0 1.0
2.7635322 0.13387735 1.4466372 -0.10303284972906113 -0.04193795844912529 -0.9937934279441833 255.0 50.0 1.0 1.0
2.7761412 0.16360953 1.4540603 -0.1061428114771843 -0.0651136115193367 -0.9922166466712952 255.0 50.0 1.0 1.0
2.616544 0.13090031 1.4660889 -0.09543842077255249 -0.07150934636592865 -0.9928634762763977 255.0 51.0 1.0 1.0
2.6150379 0.15826462 1.4660975 -0.13221155107021332 -0.0757536068558693 -0.9883225560188293 253.0 51.0 1.0 1.0
2.4839804 0.12776709 1.4875168 -0.1282515823841095 -0.07097668200731277 -0.9891985058784485 255.0 52.0 1.0 1.0
2.4962196 0.15458617 1.4957385 -0.12177173048257828 -0.07103511691093445 -0.9900128841400146 255.0 52.0 1.0 1.0
2.3551373 0.12528296 1.5057065 -0.12512920796871185 -0.047768015414476395 -0.9909899234771729 255.0 53.0 1.0 1.0
2.3503399 0.14969748 1.5035614 -0.12713868916034698 -0.0676264688372612 -0.9895769357681274 255.0 53.0 1.0 1.0
2.2362158 0.12367295 1.5260363 -0.17578044533729553 -0.07089046388864517 -0.981873631477356 255.0 54.0 1.0 1.0
2.2348061 0.14705463 1.5260435 -0.09645285457372665 -0.03757156431674957 -0.9946282505989075 255.0 54.0 1.0 1.0
2.1012368 0.12065174 1.5301001 -0.10137532651424408 -0.03129957616329193 -0.9943557977676392 255.0 55.0 1.0 1.0
2.1030941 0.14283769 1.5324597 -0.1267993003129959 -0.054547540843486786 -0.9904274344444275 255.0 55.0 1.0 1.0
2.0049767 0.12040241 1.5581429 -0.09994659572839737 -0.09378240257501602 -0.9905633330345154 255.0 56.0 1.0 1.0
1.9941571 0.14070036 1.5507922 -0.09060624986886978 -0.02135561779141426 -0.9956578016281128 253.0 56.0 1.0 1.0
1.8801275 0.11853128 1.5602449 -0.1594606190919876 -0.0829552412033081 -0.9837127327919006 250.0 57.0 1.0 1.0
1.8849349 0.13863288 1.5653555 -0.14336512982845306 -0.08316243439912796 -0.9861696362495422 255.0 57.0 1.0 1.0
1.7769403 0.11733799 1.5760319 -0.1188785582780838 -0.053340405225753784 -0.9914750456809998 253.0 58.0 1.0 1.0
1.7815942 0.13636397 1.5813414 -0.15420037508010864 -0.053078822791576385 -0.9866127967834473 250.0 58.0 1.0 1.0
1.6871436 0.11762966 1.6027418 -0.12078776210546494 -0.03953403979539871 -0.9918907284736633 255.0 59.0 1.0 1.0
1.6858271 0.13526151 1.6027474 -0.12034977227449417 -0.03943104296922684 -0.9919481873512268 255.0 59.0 1.0 1.0
1.5705222 0.11668692 1.6013789 -0.11928679794073105 -0.03232414275407791 -0.9923335313796997 255.0 60.0 1.0 1.0
1.569222 0.1330976 1.6013843 -0.09862449765205383 -0.01887919381260872 -0.9949456453323364 255.0 60.0 1.0 1.0
1.4810247 0.11784516 1.6252426 -0.15303334593772888 -0.09316737204790115 -0.9838194847106934 255.0 61.0 1.0 1.0
1.4743433 0.13283794 1.6193408 -0.17952106893062592 -0.09274623543024063 -0.9793723821640015 255.0 61.0 1.0 1.0
1.3738722 0.11730447 1.6286396 -0.12566259503364563 -0.09678494185209274 -0.9873406291007996 255.0 62.0 1.0 1.0
1.3880056 0.13312444 1.6469684 -0.10317879915237427 -0.07416795939207077 -0.9918937683105469 255.0 62.0 1.0 1.0
1.2778134 0.11832698 1.6444561 -0.1094740554690361 -0.09118519723415375 -0.989798367023468 255.0 63.0 1.0 1.0
1.2838514 0.13242373 1.6539247 -0.1094740554690361 -0.09118519723415375 -0.989798367023468 255.0 63.0 1.0 1.0
6.8878875 0.32177284 -2.3522894 -0.1187700405716896 -0.10046525299549103 0.9878260493278503 13.0 19.0 2.0 1.0
6.8047919 0.38934866 -2.3251309 -0.25971719622612 -0.11132094264030457 0.9592469334602356 13.0 19.0 2.0 1.0
7.1959605 0.32975876 -2.2462986 -0.6225870251655579 -0.7232421636581421 0.2988411784172058 18.0 20.0 2.0 1.0
7.7639942 0.4372116 -2.4249976 0.12595303356647491 -0.5507274270057678 0.8251274228096008 24.0 20.0 2.0 1.0
7.2526898 0.32594392 -2.0565095 0.6016944050788879 0.6945471167564392 -0.3944214880466461 18.0 21.0 2.0 1.0
9.0933046 0.50384438 -2.5800939 0.19431574642658234 -0.894446611404419 0.40274885296821594 17.0 21.0 2.0 1.0
10.870734 0.47839877 -2.7756631 -0.6815547347068787 -0.5905516743659973 0.4321247637271881 16.0 22.0 2.0 1.0
10.807098 0.58904517 -2.7607918 -0.11611291766166687 -0.8469052910804749 0.5189117193222046 15.0 22.0 2.0 1.0
10.865401 0.47047374 -2.4753456 -0.4167757034301758 -0.7699010968208313 0.4832702875137329 9.0 23.0 2.0 1.0
10.600783 0.45339277 -2.127975 -0.004254965577274561 -0.9672964215278625 -0.25361332297325134 28.0 24.0 2.0 5.0
10.783454 0.57436341 -2.1657169 -0.012792259454727173 -0.921900749206543 -0.3872148394584656 19.0 24.0 2.0 5.0
21.008162 0.88257146 -3.6537857 -0.1274690181016922 -0.9807279109954834 0.14806891977787018 25.0 25.0 2.0 6.0
21.025341 1.1039604 -3.6585143 -0.042501434683799744 -0.996444582939148 0.0727442279458046 25.0 25.0 2.0 6.0
10.997746 0.45669189 -1.6201328 0.0005231448449194431 -0.9973766207695007 0.07238423824310303 12.0 26.0 2.0 5.0
10.933099 0.56874347 -1.6113551 0.00372707680799067 -0.9957001209259033 0.09255971014499664 11.0 26.0 2.0 5.0
21.141161 0.86932981 -2.5642915 -0.04811617732048035 -0.9968578219413757 -0.06292296946048737 24.0 27.0 2.0 6.0
21.210232 1.0947533 -2.5738535 -0.010359304957091808 -0.9954197406768799 -0.09503740817308426 18.0 27.0 2.0 6.0
21.244249 0.86225379 -2.0241289 -0.06313996016979218 -0.9974695444107056 0.032675813883543015 29.0 28.0 2.0 6.0
11.025617 0.56372148 -1.0504789 0.06906919926404953 -0.9956940412521362 -0.06182872876524925 25.0 28.0 2.0 5.0
21.293308 0.86035281 -1.4783528 0.011657754890620708 -0.9999215602874756 0.004589195363223553 23.0 29.0 2.0 6.0
11.013161 0.5610708 -0.76447594 -0.02938312664628029 -0.9975051879882812 0.06418859958648682 24.0 29.0 2.0 5.0
21.456026 0.86300087 -0.93960673 0.01862894743680954 -0.9998140335083008 -0.004970103967934847 23.0 30.0 2.0 6.0
11.033179 0.56007051 -0.48290667 -0.04166247695684433 -0.9962661862373352 0.07561717182397842 22.0 30.0 2.0 5.0
11.047234 0.44285819 -0.20174439 -0.009411743842065334 -0.9993851780891418 0.03377503529191017 15.0 31.0 2.0 5.0
11.109904 0.56192619 -0.2029555 -0.031884483993053436 -0.9980090856552124 0.054417744278907776 18.0 31.0 2.0 5.0
11.178718 -1.6055387 0.083511464 0.000702809018548578 -0.9992529153823853 0.038640398532152176 23.0 32.0 2.0 5.0
11.19493 -1.4884093 0.083535194 -0.008270337246358395 -0.9995782971382141 0.027834869921207428 21.0 32.0 2.0 5.0
9.9932642 -1.4387368 0.33191669 0.09976932406425476 -0.9912663698196411 0.08623908460140228 17.0 33.0 2.0 5.0
7.7619367 -1.118631 0.65928656 0.022962849587202072 -0.9670002460479736 0.2537385821342468 16.0 35.0 2.0 5.0
7.7969408 -1.0404794 0.66131145 0.006921874359250069 -0.9645336270332336 0.2638690173625946 14.0 35.0 2.0 6.0
6.9671187 -1.0064541 0.77352309 0.08694488555192947 -0.983742892742157 0.15713194012641907 21.0 36.0 2.0 5.0
7.0324588 -0.94085819 0.7796495 -0.06444734334945679 -0.9961743354797363 0.05902041122317314 17.0 36.0 2.0 5.0
6.5721159 -0.95168704 0.9033584 -0.07588493078947067 -0.9873847365379333 -0.13897065818309784 17.0 37.0 2.0 5.0
6.5778031 -0.88231069 0.9028334 -0.12695874273777008 -0.9747995734214783 -0.18343167006969452 18.0 37.0 2.0 5.0
1.2508878 -0.25403604 -1.6780132 0.12993638217449188 0.03886331245303154 0.9907604455947876 255.0 0.0 1.0 1.0
1.2623303 -0.27016515 -1.6971295 0.12993638217449188 0.03886331245303154 0.9907604455947876 255.0 0.0 1.0 1.0
1.3833929 -0.27134722 -1.705074 0.16074804961681366 0.03171618655323982 0.9864857792854309 255.0 1.0 1.0 1.0
1.3779656 -0.28528947 -1.7019916 0.10001526772975922 -0.02339850552380085 0.9947106838226318 255.0 1.0 1.0 1.0
1.5076152 -0.28741568 -1.719028 0.0997542068362236 -0.02066713385283947 0.9947974681854248 255.0 2.0 1.0 1.0
1.5149401 -0.30529052 -1.7309743 0.10789639502763748 -0.028893228620290756 0.9937421679496765 255.0 2.0 1.0 1.0
1.649462 -0.30628189 -1.7448418 0.1092156320810318 0.0064875343814492226 0.9939968585968018 255.0 3.0 1.0 1.0
1.6461468 -0.32352763 -1.7448448 0.13399039208889008 0.006467723753303289 0.9909615516662598 255.0 3.0 1.0 1.0
1.7865175 -0.32446945 -1.759807 0.19853219389915466 0.10673093050718307 0.9742656350135803 255.0 4.0 1.0 1.0
1.7801863 -0.34260473 -1.7570244 0.19853219389915466 0.10673093050718307 0.9742656350135803 255.0 4.0 1.0 1.0
1.9306077 -0.3438291 -1.77449 0.16330230236053467 0.06178499758243561 0.984639585018158 255.0 5.0 1.0 1.0
1.9181471 -0.36235961 -1.7664361 0.10266429930925369 0.04692297428846359 0.9936086535453796 244.0 5.0 1.0 1.0
2.0998924 -0.36733198 -1.8041254 0.13745282590389252 0.09409334510564804 0.9860289096832275 255.0 6.0 1.0 1.0
2.0899129 -0.38817292 -1.7989575 0.06946741044521332 0.09476552903652191 0.9930729269981384 255.0 6.0 1.0 1.0
2.2619982 -0.38972908 -1.8191439 0.1395314484834671 0.05459517613053322 0.9887114763259888 250.0 7.0 1.0 1.0
2.254694 -0.41281873 -1.8166617 0.15324506163597107 0.029187265783548355 0.9877570867538452 253.0 7.0 1.0 1.0
2.4189615 -0.41125172 -1.8231301 0.12672068178653717 0.06490902602672577 0.989812433719635 244.0 8.0 1.0 1.0
2.4334517 -0.43998787 -1.8374592 0.11737328767776489 0.05545385554432869 0.9915383458137512 250.0 8.0 1.0 1.0
2.6384983 -0.44257858 -1.8643812 0.1263696849346161 0.012994969263672829 0.9918981194496155 244.0 9.0 1.0 1.0
2.6337011 -0.47017455 -1.8643861 0.16980518400669098 0.057355329394340515 0.9838072061538696 244.0 9.0 1.0 1.0
2.8581724 -0.47496065 -1.8929989 0.10222867876291275 0.08279817551374435 0.9913091659545898 241.0 10.0 1.0 1.0
2.8365438 -0.5019303 -1.8820571 0.12372471392154694 0.10438240319490433 0.9868112206459045 223.0 10.0 1.0 1.0
3.0976863 -0.50935817 -1.9221495 0.09380855411291122 0.006545265205204487 0.9955686926841736 232.0 11.0 1.0 1.0
3.0955236 -0.54234952 -1.9242457 0.18408048152923584 0.09835910052061081 0.9779773950576782 223.0 11.0 1.0 1.0
3.3784602 -0.55023849 -1.9612894 0.06960368901491165 0.002693534828722477 0.9975711107254028 223.0 12.0 1.0 1.0
3.3554027 -0.58260286 -1.9513458 0.09274836629629135 0.002688444685190916 0.995685875415802 202.0 12.0 1.0 1.0
3.6623423 -0.59203321 -1.9882727 0.15723934769630432 0.05841057747602463 0.985831618309021 190.0 13.0 1.0 1.0
3.6871843 -0.63574588 -2.0052969 0.0924752801656723 0.056837987154722214 0.9940915107727051 199.0 13.0 1.0 1.0
4.0378475 -0.64857739 -2.0466409 0.11588388681411743 0.04029277712106705 0.9924452304840088 175.0 14.0 1.0 1.0
4.0519652 -0.69444925 -2.0573967 0.20974870026111603 0.03412766382098198 0.9771595597267151 181.0 14.0 1.0 1.0
4.4757981 -0.71430707 -2.1139579 0.12806344032287598 0.033172186464071274 0.9912111163139343 244.0 15.0 1.0 1.0
4.5002108 -0.76661795 -2.1291931 0.08296682685613632 0.04077308252453804 0.9957178831100464 241.0 15.0 1.0 1.0
3.9938006 0.15845825 -1.7354727 -0.1526201069355011 -0.9867208003997803 -0.05557847395539284 255.0 16.0 1.0 1.0
3.9695551 0.11589496 -1.7243239 -0.058555569499731064 -0.9965505599975586 -0.058805108070373535 255.0 16.0 1.0 1.0
3.9729228 0.15343185 -1.5993192 -0.23653435707092285 -0.9705033302307129 -0.04663575440645218 255.0 17.0 1.0 1.0
3.9928401 0.11234745 -1.6068017 -0.017544373869895935 -0.9998157620429993 -0.007794835604727268 255.0 17.0 1.0 1.0
4.0711379 0.15217997 -1.5120699 -0.2821113169193268 -0.3905732333660126 0.8762795925140381 181.0 18.0 1.0 1.0
4.0724921 0.10955107 -1.5120823 -0.026934973895549774 -0.13677917420864105 0.9902353286743164 187.0 18.0 1.0 1.0
4.3637762 0.15842582 -1.4891003 0.8801249861717224 -0.27321305871009827 0.38824552297592163 208.0 19.0 1.0 1.0
4.4257278 0.11428028 -1.5097895 0.6341822147369385 -0.7620994448661804 0.13045068085193634 229.0 19.0 1.0 1.0
4.4628844 0.158061 -1.3920175 0.15548057854175568 -0.9159168601036072 0.37002992630004883 244.0 20.0 1.0 1.0
4.4528275 0.11104747 -1.3884565 0.3908050060272217 -0.8684035539627075 0.30519941449165344 241.0 20.0 1.0 1.0
4.4980206 0.15532982 -1.2743804 -0.13263317942619324 -0.8830921053886414 0.4500631093978882 229.0 21.0 1.0 1.0
4.5147738 0.10859823 -1.2787576 0.17667780816555023 -0.9317984580993652 0.3170749247074127 255.0 21.0 1.0 1.0
4.541779 0.15282553 -1.1584369 -0.44910064339637756 -0.839091956615448 0.3069744110107422 229.0 22.0 1.0 1.0
4.5624886 0.10571365 -1.1633965 0.20743848383426666 -0.8882694840431213 0.40981289744377136 244.0 22.0 1.0 1.0
4.6094222 0.15182665 -1.0489737 -0.6276769638061523 -0.7295241355895996 0.27169090509414673 184.0 23.0 1.0 1.0
4.6419377 0.10425653 -1.056093 0.4259718358516693 -0.7901183366775513 0.44075050950050354 232.0 23.0 1.0 1.0
4.9369216 0.15990838 -0.98999596 -0.0847940519452095 -0.9585016965866089 -0.27218449115753174 106.0 24.0 1.0 2.0
4.9579148 0.10864075 -0.99394584 0.08569953590631485 -0.9861450791358948 0.14203327894210815 94.0 24.0 1.0 2.0
4.964994 0.15730345 -0.86230457 -0.02489401027560234 -0.987824559211731 0.1535680592060089 199.0 25.0 1.0 2.0
4.9781742 0.10556497 -0.86437464 0.03084135614335537 -0.9981327652931213 0.05272301658987999 175.0 25.0 1.0 2.0
4.9936399 0.15554875 -0.73475927 0.042462579905986786 -0.997205913066864 0.0614590123295784 244.0 26.0 1.0 2.0
4.9949808 0.10326377 -0.73477417 0.031246887519955635 -0.9958885312080383 0.08502668887376785 241.0 26.0 1.0 2.0
5.0148406 0.15441442 -0.60723245 0.028557339683175087 -0.9969053268432617 -0.07324130833148956 255.0 27.0 1.0 2.0
5.0399895 0.10238674 -0.61013627 -0.1192023903131485 -0.9746972918510437 -0.18909241259098053 255.0 27.0 1.0 2.0
5.0766425 0.15360525 -0.48274979 0.03141545504331589 -0.9925873875617981 0.11740267276763916 255.0 28.0 1.0 2.0
4.9903722 0.098739594 -0.47442013 -0.05832309648394585 -0.9913870692253113 0.11726070195436478 193.0 28.0 1.0 2.0
5.0794234 0.15276337 -0.35179347 0.07609229534864426 -0.9888589978218079 0.12793637812137604 208.0 29.0 1.0 2.0
5.0009384 0.098036304 -0.34626794 -0.04907764121890068 -0.9965941309928894 0.0662684366106987 145.0 29.0 1.0 2.0
5.062829 0.1513458 -0.22093482 -0.11804097145795822 -0.9875331521034241 -0.10413789749145508 103.0 30.0 1.0 2.0
5.0880961 0.098798908 -0.22200026 -0.04043468087911606 -0.9979130625724792 0.05034409835934639 94.0 30.0 1.0 2.0
5.0668583 0.15054286 -0.092035897 -0.05890383571386337 -0.9950085282325745 0.0805509015917778 28.0 31.0 1.0 2.0
5.0721431 0.097570434 -0.092124291 -0.03804359212517738 -0.9985380172729492 0.03840067237615585 10.0 31.0 1.0 2.0
5.0815272 -0.78348476 0.038469467 -0.060174982994794846 -0.9932779669761658 0.09888257831335068 21.0 32.0 1.0 2.0
5.1164422 -0.84380621 0.038781565 -0.006747026462107897 -0.9999695420265198 0.0039218696765601635 23.0 32.0 1.0 2.0
5.133966 -0.79344505 0.17116159 -0.12868675589561462 -0.9881926774978638 0.08315621316432953 21.0 33.0 1.0 2.0
5.117476 -0.84583628 0.17088947 0.03542265668511391 -0.9989820718765259 -0.02793208323419094 19.0 33.0 1.0 2.0
5.1041932 -0.78977263 0.3020266 0.005046114791184664 -0.9983453154563904 -0.05728045850992203 244.0 34.0 1.0 1.0
5.0759344 -0.83989251 0.30085215 -0.041242580860853195 -0.9817495346069336 -0.18565234541893005 211.0 34.0 1.0 1.0
5.1264458 -0.793248 0.43634063 0.09896659106016159 -0.9781267046928406 0.1829582005739212 25.0 35.0 1.0 2.0
5.1728997 -0.85599077 0.44101691 0.03412226587533951 -0.9890673756599426 0.14346197247505188 26.0 35.0 1.0 2.0
5.1999249 -0.80652314 0.5783819 -0.0018140054307878017 -0.9945728778839111 0.1040266826748848 26.0 36.0 1.0 2.0
5.1598043 -0.85569596 0.57487971 -0.03534138202667236 -0.985590398311615 0.16541647911071777 26.0 36.0 1.0 2.0
5.1832151 -0.80580521 0.71368825 0.006993249524384737 -0.9886165261268616 -0.15029498934745789 23.0 37.0 1.0 2.0
5.20576 -0.86522269 0.71798867 0.026048006489872932 -0.9889055490493774 -0.14624421298503876 22.0 37.0 1.0 2.0
5.307385 -0.82801747 0.87147808 0.012157879769802094 -0.9851348996162415 -0.17135189473628998 27.0 38.0 1.0 2.0
5.3256745 -0.88807857 0.87594903 0.019817426800727844 -0.9847736954689026 -0.17270824313163757 29.0 38.0 1.0 2.0
5.4150763 -0.84777987 1.034628 -0.03241223469376564 -0.9740772843360901 -0.2238810658454895 33.0 39.0 1.0 5.0
5.4213991 -0.90701169 1.0375839 -0.04872770234942436 -0.971592128276825 -0.23159092664718628 33.0 39.0 1.0 5.0
4.8573046 -0.76206541 1.0607597 -0.14789605140686035 -0.5247905850410461 -0.8382849097251892 196.0 40.0 1.0 1.0
4.8451929 -0.81221479 1.0599072 -0.10865701735019684 -0.41980481147766113 -0.9010868668556213 196.0 40.0 1.0 1.0
4.5091643 -0.7105878 1.110121 -0.20395150780677795 -0.13535411655902863 -0.9695788025856018 127.0 41.0 1.0 1.0
4.4899688 -0.75580287 1.1072778 -0.28442075848579407 -0.1609962284564972 -0.9450846910476685 199.0 41.0 1.0 1.0
4.2041183 -0.66544586 1.1530392 -0.122189961373806 -0.2495674341917038 -0.9606173038482666 202.0 42.0 1.0 1.0
4.1892972 -0.70811796 1.1509402 -0.08742784708738327 -0.23565949499607086 -0.9678951501846313 211.0 42.0 1.0 1.0
4.1492977 -0.66048229 1.2581689 -0.10388687998056412 -0.1465066522359848 -0.98373943567276 255.0 43.0 1.0 1.0
4.1459231 -0.70451337 1.2593082 -0.16119275987148285 0.01975012943148613 -0.9867252707481384 255.0 43.0 1.0 1.0
3.7466962 -0.59962475 1.2465194 -0.5387777090072632 -0.09407062083482742 -0.83717942237854 255.0 44.0 1.0 1.0
3.6840162 -0.62918061 1.2277899 -0.5680098533630371 -0.0873628631234169 -0.8183718919754028 255.0 44.0 1.0 1.0
3.548404 -0.57100588 1.2880391 -0.30322131514549255 -0.0557430125772953 -0.9512884020805359 253.0 45.0 1.0 1.0
3.5496435 -0.60938287 1.2907308 -0.2895651161670685 -0.04078586399555206 -0.9562889933586121 255.0 45.0 1.0 1.0
3.2771821 -0.5307858 1.2905089 0.27668702602386475 -0.0323893278837204 -0.9604140520095825 229.0 46.0 1.0 1.0
3.3412342 -0.57713532 1.3180346 -0.36129289865493774 -0.05835732817649841 -0.9306244254112244 255.0 46.0 1.0 1.0
3.0990553 -0.50464696 1.3195851 0.1127554327249527 -0.018723489716649055 -0.9934463500976562 241.0 47.0 1.0 1.0
3.0899591 -0.53641206 1.3180296 0.3349544405937195 -0.025180179625749588 -0.9418978691101074 244.0 47.0 1.0 1.0
3.0888104 0.11011724 1.4025817 -0.08846437186002731 -0.06438355892896652 -0.9939963817596436 255.0 48.0 1.0 1.0
3.0825033 0.077612661 1.3992666 -0.07987543195486069 -0.06443045288324356 -0.9947203993797302 255.0 48.0 1.0 1.0
2.9085424 0.10677325 1.419315 -0.15913845598697662 -0.06073128432035446 -0.9853865504264832 255.0 49.0 1.0 1.0
2.9202752 0.076616466 1.4245663 -0.11314133554697037 -0.06286818534135818 -0.9915879964828491 255.0 49.0 1.0 1.0
2.7612276 0.10476783 1.4447682 -0.10571000725030899 -0.04192611575126648 -0.993512749671936 255.0 50.0 1.0 1.0
2.7409053 0.075299546 1.4336386 -0.158759206533432 -0.06707894802093506 -0.9850360751152039 253.0 50.0 1.0 1.0
2.6072953 0.10305808 1.4602133 -0.1485644429922104 -0.105915367603302 -0.9832143783569336 255.0 51.0 1.0 1.0
2.6117122 0.07587716 1.4621592 -0.162602037191391 -0.10567856580018997 -0.9810160994529724 255.0 51.0 1.0 1.0
2.4885995 0.1018647 1.489556 -0.10056611150503159 -0.030230144038796425 -0.9944709539413452 255.0 52.0 1.0 1.0
2.4757972 0.075415537 1.481335 -0.1441420167684555 -0.07435120642185211 -0.9867598414421082 255.0 52.0 1.0 1.0
2.3394666 0.099883795 1.4949286 -0.15451225638389587 -0.04138609394431114 -0.9871236681938171 255.0 53.0 1.0 1.0
2.3471155 0.075622268 1.4992272 -0.15451225638389587 -0.04138609394431114 -0.9871236681938171 255.0 53.0 1.0 1.0
2.2241676 0.099648193 1.5170116 -0.13972803950309753 -0.0713052973151207 -0.9876192212104797 255.0 54.0 1.0 1.0
2.2217779 0.076268516 1.5147521 -0.1418015956878662 -0.04078572243452072 -0.9890545010566711 255.0 54.0 1.0 1.0
2.1088357 0.098929256 1.5347929 -0.11548886448144913 -0.03125113993883133 -0.9928169846534729 255.0 55.0 1.0 1.0
2.1000495 0.076520942 1.5277284 -0.11223999410867691 -0.0279623381793499 -0.9932876229286194 255.0 55.0 1.0 1.0
1.9777092 0.097999282 1.5360589 -0.09994659572839737 -0.09378240257501602 -0.9905633330345154 250.0 56.0 1.0 1.0
1.9912498 0.077798672 1.5458626 -0.14822059869766235 -0.062253110110759735 -0.9869930148124695 255.0 56.0 1.0 1.0
1.8935567 0.099470213 1.5704418 -0.1594606190919876 -0.0829552412033081 -0.9837127327919006 255.0 57.0 1.0 1.0
1.8760226 0.078898937 1.555123 -0.14011429250240326 -0.03016124665737152 -0.9896758794784546 253.0 57.0 1.0 1.0
1.78703 0.099213786 1.5839759 -0.14435337483882904 -0.07915358990430832 -0.9863554239273071 255.0 58.0 1.0 1.0
1.7849712 0.080390744 1.5813186 -0.06534870713949203 -0.079820416867733 -0.9946649074554443 255.0 58.0 1.0 1.0
1.6737829 0.099107035 1.5889689 -0.11629223078489304 -0.04986950010061264 -0.991962194442749 255.0 59.0 1.0 1.0
1.6776205 0.081742436 1.5917161 -0.12638919055461884 -0.049807529896497726 -0.9907296299934387 255.0 59.0 1.0 1.0
1.5800402 0.10076711 1.6099273 -0.11776125431060791 -0.03328220918774605 -0.9924840927124023 255.0 60.0 1.0 1.0
1.5614023 0.08321362 1.5899516 -0.11601784825325012 -0.03575850650668144 -0.9926033020019531 253.0 60.0 1.0 1.0
1.4794741 0.10215133 1.6222788 -0.15101991593837738 -0.09112337231636047 -0.9843218922615051 255.0 61.0 1.0 1.0
1.464296 0.085747629 1.6045538 -0.15101991593837738 -0.09112337231636047 -0.9843218922615051 253.0 61.0 1.0 1.0
1.3827416 0.10349213 1.6377918 -0.12427793443202972 -0.09680196642875671 -0.9875142574310303 255.0 62.0 1.0 1.0
1.3863201 0.089199848 1.6408411 -0.12427793443202972 -0.09680196642875671 -0.9875142574310303 255.0 62.0 1.0 1.0
1.283873 0.10534911 1.650756 -0.10927585512399673 -0.09118719398975372 -0.9898200631141663 255.0 63.0 1.0 1.0
1.2726326 0.091060579 1.6349784 -0.12786702811717987 -0.10985389351844788 -0.9856886863708496 255.0 63.0 1.0 1.0
7.2887907 0.23545018 -1.4622095 -0.0847940519452095 -0.9585016965866089 -0.27218449115753174 17.0 24.0 2.0 5.0
7.3574953 0.1605667 -1.4756104 0.08569953590631485 -0.9861450791358948 0.14203327894210815 118.0 24.0 2.0 5.0
10.908875 0.34413019 -1.8960466 -0.031192881986498833 -0.9866699576377869 0.15971653163433075 14.0 25.0 2.0 5.0
10.939444 0.23046198 -1.900874 0.03084135614335537 -0.9981327652931213 0.05272301658987999 15.0 25.0 2.0 5.0
11.005863 0.34132704 -1.6207664 0.042462579905986786 -0.997205913066864 0.0614590123295784 6.0 26.0 2.0 5.0
10.913862 0.22412789 -1.6068087 0.031246887519955635 -0.9958885312080383 0.08502668887376785 17.0 26.0 2.0 5.0
21.113371 0.64623427 -2.5600529 0.028557339683175087 -0.9969053268432617 -0.07324130833148956 16.0 27.0 2.0 6.0
10.95149 0.22099231 -1.327057 -0.1192023903131485 -0.9746972918510437 -0.18909241259098053 16.0 27.0 2.0 5.0
21.248123 0.63905782 -2.0238445 0.03141545504331589 -0.9925873875617981 0.11740267276763916 28.0 28.0 2.0 6.0
10.994041 0.21600811 -1.0464242 -0.05832309648394585 -0.9913870692253113 0.11726070195436478 20.0 28.0 2.0 5.0
21.26923 0.63581878 -1.4762316 0.07609229534864426 -0.9888589978218079 0.12793637812137604 28.0 29.0 2.0 6.0
11.04525 0.21500057 -0.76597852 -0.04907764121890068 -0.9965941309928894 0.0662684366106987 22.0 29.0 2.0 5.0
21.364017 0.63475841 -0.93532604 -0.11804097145795822 -0.9875331521034241 -0.10413789749145508 30.0 30.0 2.0 6.0
11.089232 0.213835 -0.48494986 -0.04043468087911606 -0.9979130625724792 0.05034409835934639 22.0 30.0 2.0 5.0
21.401016 0.63196105 -0.39161098 -0.05890383571386337 -0.9950085282325745 0.0805509015917778 25.0 31.0 2.0 6.0
21.362461 0.40699923 -0.39086664 -0.03804359212517738 -0.9985380172729492 0.03840067237615585 24.0 31.0 2.0 6.0
19.027699 -2.9380379 0.1417549 -0.060448046773672104 -0.9977853298187256 0.027754565700888634 12.0 32.0 2.0 6.0
11.201757 -1.8493247 0.083914578 -0.006747026462107897 -0.9999695420265198 0.0039218696765601635 21.0 32.0 2.0 5.0
19.103861 -2.9567227 0.63476622 -0.12868675589561462 -0.9881926774978638 0.08315621316432953 13.0 33.0 2.0 6.0
7.7851973 -1.2055188 0.66228795 0.09896659106016159 -0.9781267046928406 0.1829582005739212 17.0 35.0 2.0 5.0
7.6187773 -1.2615305 0.64921904 0.03412226587533951 -0.9890673756599426 0.14346197247505188 13.0 35.0 2.0 5.0
6.8542423 -1.137279 0.7634598 -0.03534138202667236 -0.985590398311615 0.16541647911071777 18.0 36.0 2.0 5.0
6.5813274 -1.0236437 0.90604258 0.006993249524384737 -0.9886165261268616 -0.15029498934745789 14.0 37.0 2.0 5.0
6.5624185 -1.0911796 0.9049527 0.026048006489872932 -0.9889055490493774 -0.14624421298503876 13.0 37.0 2.0 5.0
1.264116 -0.28448415 -1.7035035 0.12982288002967834 0.057043518871068954 0.9898949861526489 255.0 0.0 1.0 1.0
1.2563437 -0.29657841 -1.6971339 0.06072838604450226 -0.01783960871398449 0.9979948997497559 255.0 0.0 1.0 1.0
1.3848165 -0.30193448 -1.7143337 0.09475655108690262 -0.018091626465320587 0.9953360557556152 255.0 1.0 1.0 1.0
1.3914875 -0.31869388 -1.7266753 0.09472385793924332 0.031888965517282486 0.9949926733970642 255.0 1.0 1.0 1.0
1.5012126 -0.31896901 -1.7190335 0.10789639502763748 -0.028893228620290756 0.9937421679496765 255.0 2.0 1.0 1.0
1.5081612 -0.33699381 -1.7309794 0.1614461988210678 -0.007326175458729267 0.9868543744087219 255.0 2.0 1.0 1.0
1.6399206 -0.34024054 -1.7419623 0.13596846163272858 0.00511243287473917 0.9906999468803406 250.0 3.0 1.0 1.0
1.6470741 -0.35975933 -1.7535065 0.15275992453098297 0.004547429271042347 0.9882529377937317 255.0 3.0 1.0 1.0
1.7820888 -0.36243787 -1.7625992 0.12094812840223312 0.057773105800151825 0.9909762144088745 255.0 4.0 1.0 1.0
1.7753725 -0.38046598 -1.7598161 0.1209658831357956 0.05518243834376335 0.9911216497421265 255.0 4.0 1.0 1.0
1.9200227 -0.38365743 -1.771811 0.1177922785282135 0.04684382677078247 0.9919326901435852 247.0 5.0 1.0 1.0
1.9274825 -0.40618664 -1.7825575 0.0918903797864914 0.020682858303189278 0.9955543279647827 255.0 5.0 1.0 1.0
2.0856953 -0.41010684 -1.7989609 0.05785094201564789 0.08319445699453354 0.9948527216911316 250.0 6.0 1.0 1.0
2.0902321 -0.43378225 -1.806722 0.15144822001457214 0.08237277716398239 0.9850269556045532 253.0 6.0 1.0 1.0
2.2440569 -0.4352842 -1.8116927 0.10633775591850281 0.07464553415775299 0.991524338722229 244.0 7.0 1.0 1.0
2.2547047 -0.46190435 -1.824128 0.1411721110343933 0.0033398207742720842 0.9899795055389404 250.0 7.0 1.0 1.0
2.4349742 -0.46673805 -1.8422377 0.15469610691070557 0.05516763776540756 0.9864206910133362 247.0 8.0 1.0 1.0
2.4299359 -0.49220169 -1.8422416 0.0878930538892746 0.029946591705083847 0.9956796765327454 250.0 8.0 1.0 1.0
2.6350384 -0.49903798 -1.8689673 0.06686001271009445 0.05807030200958252 0.9960711002349854 247.0 9.0 1.0 1.0
2.613569 -0.52336514 -1.8575283 0.10194848477840424 0.14886724948883057 0.9835878610610962 229.0 9.0 1.0 1.0
2.8475394 -0.53479528 -1.8930084 0.1804690808057785 0.08444603532552719 0.979948878288269 223.0 10.0 1.0 1.0
2.8417654 -0.56457573 -1.893013 0.12552987039089203 -0.01839909330010414 0.991919219493866 229.0 10.0 1.0 1.0
3.0996892 -0.57671005 -1.9305207 0.0972667932510376 0.05869178846478462 0.9935262799263 223.0 11.0 1.0 1.0
3.1001544 -0.61044961 -1.9347062 0.06903748959302902 0.058830711990594864 0.9958778619766235 223.0 11.0 1.0 1.0
3.3593099 -0.61970609 -1.9573203 0.16108134388923645 0.024923289194703102 0.9866264462471008 205.0 12.0 1.0 1.0
3.3628345 -0.65684122 -1.9632959 0.12447453290224075 0.0191936232149601 0.9920371174812317 208.0 12.0 1.0 1.0
3.6872127 -0.67571062 -2.0090833 0.11380349099636078 0.03663364052772522 0.9928276538848877 202.0 13.0 1.0 1.0
3.6764569 -0.71360362 -2.0071986 0.10510675609111786 0.012082225643098354 0.9943875670433044 187.0 13.0 1.0 1.0
4.0409055 -0.7363255 -2.0556102 0.13843511044979095 0.044891007244586945 0.989353597164154 166.0 14.0 1.0 1.0
4.0470004 -0.78130919 -2.0627823 0.09737841784954071 0.060175102204084396 0.9934265613555908 169.0 14.0 1.0 1.0
4.5097179 -0.81707555 -2.1376576 0.14315950870513916 0.03222135454416275 0.9891749620437622 253.0 15.0 1.0 1.0
4.5151339 -0.86698627 -2.1444328 0.07790874689817429 -0.01031834352761507 0.9969069957733154 253.0 15.0 1.0 1.0
3.9741933 0.074270591 -1.7259372 -0.054279159754514694 -0.9950317740440369 -0.08345901966094971 255.0 16.0 1.0 1.0
3.9967468 0.032834273 -1.7355151 -0.02379264310002327 -0.9979358911514282 -0.059648219496011734 255.0 16.0 1.0 1.0
3.971513 0.070026822 -1.597856 -0.021522171795368195 -0.99967360496521 0.013764150440692902 255.0 17.0 1.0 1.0
3.9905639 0.02857252 -1.6053377 -0.022070085629820824 -0.9996616244316101 0.01376398652791977 255.0 17.0 1.0 1.0
4.0808892 0.066903517 -1.5148877 0.10384757816791534 -0.1375867873430252 0.9850307106971741 175.0 18.0 1.0 1.0
4.0813494 0.024177045 -1.514899 0.15642176568508148 -0.14565278589725494 0.9768917560577393 163.0 18.0 1.0 1.0
4.4607224 0.06831605 -1.5214405 0.46037721633911133 -0.860480785369873 0.21823275089263916 244.0 19.0 1.0 1.0
4.4536066 0.021577224 -1.5188683 0.16992324590682983 -0.9839298725128174 0.05484636873006821 238.0 19.0 1.0 1.0
4.4651752 0.064451002 -1.3920515 0.16424386203289032 -0.9626057744026184 0.21543915569782257 247.0 20.0 1.0 1.0
4.4694076 0.017715324 -1.3932555 0.07481944561004639 -0.9839016795158386 0.16229462623596191 250.0 20.0 1.0 1.0
4.5156393 0.061190505 -1.2787783 0.09134796261787415 -0.9240110516548157 0.3712938129901886 244.0 21.0 1.0 1.0
4.5237136 0.013934882 -1.2809726 0.08501259237527847 -0.9389561414718628 0.33336806297302246 247.0 21.0 1.0 1.0
4.5788236 0.058000334 -1.167374 0.14701798558235168 -0.9036316275596619 0.4022878110408783 247.0 22.0 1.0 1.0
4.5946674 0.010092139 -1.1713434 0.09809188544750214 -0.8987048864364624 0.42744287848472595 253.0 22.0 1.0 1.0
4.6505513 0.055610005 -1.0578905 0.28269147872924805 -0.8302370309829712 0.4804081320762634 235.0 23.0 1.0 1.0
4.6664639 0.0069400682 -1.0614562 0.15913408994674683 -0.8504974246025085 0.5013287663459778 232.0 23.0 1.0 1.0
4.9626794 0.056630019 -0.99475521 0.06211407855153084 -0.966878354549408 -0.2475644201040268 109.0 24.0 1.0 2.0
4.978672 0.0046841768 -0.99791706 -0.04919124022126198 -0.7731813192367554 -0.632274329662323 106.0 24.0 1.0 2.0
4.9789839 0.053300753 -0.86439693 0.010308603756129742 -0.9985548853874207 0.052745312452316284 208.0 25.0 1.0 2.0
4.9753141 0.0011740056 -0.86372554 0.004240808077156544 -0.9937003254890442 0.11199050396680832 169.0 25.0 1.0 2.0
5.0234652 0.051100928 -0.738877 -0.011498410254716873 -0.9995406866073608 0.028037069365382195 253.0 26.0 1.0 2.0
5.0078816 -0.00060867233 -0.73655885 0.01082049123942852 -0.9996568560600281 0.023857515305280685 226.0 26.0 1.0 2.0
5.0129685 0.049211755 -0.60678828 -0.04082706570625305 -0.9754552245140076 -0.21637997031211853 235.0 27.0 1.0 2.0
5.0092235 -0.0032662691 -0.60632056 -0.07227841764688492 -0.9944221377372742 -0.0768149197101593 217.0 27.0 1.0 2.0
5.0229659 0.046642389 -0.47747692 -0.14150138199329376 -0.9893313646316528 -0.03465002775192261 214.0 28.0 1.0 2.0
5.0271482 -0.0050709615 -0.47786978 -0.02963722124695778 -0.99885493516922 0.037555549293756485 217.0 28.0 1.0 2.0
5.0495529 0.045966931 -0.34961474 -0.03970086947083473 -0.9986059665679932 0.03478437662124634 160.0 29.0 1.0 2.0
5.0537343 -0.0069018798 -0.34990561 0.037434354424476624 -0.9918574690818787 0.12172660231590271 148.0 29.0 1.0 2.0
5.0368834 0.044940785 -0.21974681 0.006295178551226854 -0.9889096617698669 0.1483846753835678 52.0 30.0 1.0 2.0
5.0690336 -0.0078450684 -0.22116128 -0.0002470639592502266 -0.9869154095649719 0.1612386554479599 55.0 30.0 1.0 2.0
5.0608692 0.044231582 -0.091926739 -0.08727826923131943 -0.9948946833610535 -0.05066618323326111 30.0 31.0 1.0 2.0
5.0970359 -0.0088183787 -0.092600718 -0.05181062966585159 -0.9982061982154846 0.029998738318681717 29.0 31.0 1.0 2.0
5.0994029 -0.89606702 0.038716953 0.015954509377479553 -0.9987761378288269 -0.046815767884254456 21.0 32.0 1.0 2.0
5.0857959 -0.94866365 0.038679101 0.5088609457015991 -0.8599932193756104 0.03836808726191521 14.0 32.0 1.0 2.0
5.1201057 -0.90157622 0.17127672 -0.045251935720443726 -0.9989484548568726 -0.0073712910525500774 15.0 33.0 1.0 2.0
5.177175 -0.96762788 0.17349665 0.08622577786445618 -0.9849041104316711 -0.15009649097919464 9.0 33.0 1.0 2.0
5.0943451 -0.89797145 0.30247656 -0.020396186038851738 -0.9570508599281311 -0.28920188546180725 235.0 34.0 1.0 1.0
5.1005168 -0.9532994 0.30339977 0.013546017929911613 -0.9509371519088745 -0.3090874254703522 235.0 34.0 1.0 1.0
5.140058 -0.90606552 0.43900251 0.059364285320043564 -0.9938399195671082 0.09358472377061844 26.0 35.0 1.0 2.0
5.1655369 -0.96642631 0.44200632 0.0866282731294632 -0.9934244155883789 -0.07485654950141907 22.0 35.0 1.0 2.0
5.1661801 -0.91255963 0.5766198 0.0027565201744437218 -0.9966989159584045 0.08113936334848404 25.0 36.0 1.0 2.0
5.1758695 -0.97025418 0.57879364 0.04747913032770157 -0.9880511164665222 0.14663052558898926 23.0 36.0 1.0 2.0
5.1846647 -0.91771913 0.71636629 0.028409453108906746 -0.9883384704589844 -0.1495993286371231 23.0 37.0 1.0 2.0
5.1747603 -0.97193754 0.71635759 0.028102681040763855 -0.9816229939460754 -0.1887499988079071 21.0 37.0 1.0 2.0
5.3432531 -0.94874489 0.88042408 -0.013047878630459309 -0.9767121076583862 -0.2141566276550293 29.0 38.0 1.0 2.0
5.3524156 -1.0082822 0.88361591 -0.045449692755937576 -0.9702149033546448 -0.23794403672218323 30.0 38.0 1.0 5.0
5.4270401 -0.96660131 1.0405442 -0.052127622067928314 -0.9708624482154846 -0.23389902710914612 33.0 39.0 1.0 5.0
5.4747233 -1.0333598 1.0516589 -0.04982132837176323 -0.9708443880081177 -0.2344762682914734 32.0 39.0 1.0 5.0
4.8171368 -0.85955912 1.0556856 -0.17009949684143066 -0.0923246294260025 -0.9810924530029297 193.0 40.0 1.0 1.0
4.8117037 -0.9106586 1.0565208 -0.13925230503082275 -0.040199004113674164 -0.9894406795501709 199.0 40.0 1.0 1.0
4.470294 -0.80080044 1.1044378 -0.07791882753372192 -0.10584953427314758 -0.9913245439529419 205.0 41.0 1.0 1.0
4.4425621 -0.84390914 1.0997062 -0.1349898725748062 -0.20417234301567078 -0.9695830941200256 190.0 41.0 1.0 1.0
4.223413 -0.75955278 1.1624359 -0.03812805190682411 -0.8032723069190979 -0.594390332698822 244.0 42.0 1.0 1.0
4.2152181 -0.80371189 1.162429 -0.07112480700016022 -0.8355442881584167 -0.5447998642921448 255.0 42.0 1.0 1.0
4.1118884 -0.74317908 1.2512729 -0.10498865693807602 -0.010194813832640648 -0.9944211840629578 255.0 43.0 1.0 1.0
4.0850554 -0.78255856 1.2455302 -0.12833771109580994 -0.08620278537273407 -0.9879769682884216 255.0 43.0 1.0 1.0
3.6734533 -0.66710186 1.2265371 -0.10291275382041931 -0.05930112674832344 -0.9929211139678955 255.0 44.0 1.0 1.0
3.6513309 -0.70262808 1.2215385 -0.09614481776952744 -0.06938465684652328 -0.9929460287094116 255.0 44.0 1.0 1.0
3.45784 -0.63099062 1.2596936 -0.4842561185359955 -0.11370304226875305 -0.8675066232681274 255.0 45.0 1.0 1.0
3.454731 -0.66785514 1.2610372 -0.1842978447675705 -0.05701123923063278 -0.9812156558036804 255.0 45.0 1.0 1.0
3.3606429 -0.61686301 1.3281735 -0.33715400099754333 -0.02016584388911724 -0.9412334561347961 255.0 46.0 1.0 1.0
3.2771413 -0.63701981 1.2977382 -0.49448591470718384 -0.03330828994512558 -0.8685471415519714 255.0 46.0 1.0 1.0
3.1204035 -0.57548702 1.3335215 -0.34293997287750244 -0.0824839323759079 -0.935728907585144 253.0 47.0 1.0 1.0
3.132292 -0.61164653 1.3412645 -0.3809545040130615 0.014818945899605751 -0.9244750738143921 255.0 47.0 1.0 1.0
3.0867743 0.045341413 1.4009045 -0.15354110300540924 -0.06745707243680954 -0.9858369827270508 255.0 48.0 1.0 1.0
3.0907142 0.013056702 1.4025489 -0.10958030074834824 -0.010788017883896828 -0.9939193725585938 255.0 48.0 1.0 1.0
2.913713 0.04588614 1.4210452 -0.1663638800382614 -0.07638763636350632 -0.9831011295318604 255.0 49.0 1.0 1.0
2.9104304 0.015381846 1.4192839 -0.1661812663078308 -0.0895351991057396 -0.9820220470428467 255.0 49.0 1.0 1.0
2.7486174 0.046680242 1.4373319 -0.15224112570285797 -0.06042516604065895 -0.9864945411682129 255.0 50.0 1.0 1.0
2.7454028 0.017901141 1.4354709 -0.14102976024150848 -0.04458000510931015 -0.9890010952949524 255.0 50.0 1.0 1.0
2.6018798 0.04830727 1.456285 -0.12866058945655823 -0.07126659154891968 -0.989124596118927 255.0 51.0 1.0 1.0
2.6057253 0.021113139 1.4582314 -0.1085476204752922 -0.07143925130367279 -0.9915210604667664 255.0 51.0 1.0 1.0
2.4695728 0.049328625 1.4772155 -0.1659296303987503 -0.04639528691768646 -0.9850456118583679 255.0 52.0 1.0 1.0
2.4871089 0.023648258 1.4874753 -0.15128551423549652 -0.05079140141606331 -0.9871843457221985 255.0 52.0 1.0 1.0
2.3342826 0.05073395 1.4906034 -0.14996646344661713 -0.042919933795928955 -0.9877590537071228 255.0 53.0 1.0 1.0
2.3346777 0.026315099 1.490597 -0.11744478344917297 -0.0431104339659214 -0.9921432137489319 255.0 53.0 1.0 1.0
2.2224407 0.052982658 1.5147402 -0.07729413360357285 -0.02404286339879036 -0.9967184662818909 255.0 54.0 1.0 1.0
2.2195606 0.029692505 1.5124812 -0.12736600637435913 -0.07452437281608582 -0.9890521168708801 255.0 54.0 1.0 1.0
2.1039557 0.054595299 1.5300695 -0.14642803370952606 -0.027836838737130165 -0.9888295531272888 255.0 55.0 1.0 1.0
2.0947003 0.032443445 1.5230057 -0.10905865579843521 -0.07505937665700912 -0.991197407245636 255.0 55.0 1.0 1.0
1.9951004 0.057021748 1.5483037 -0.14822059869766235 -0.062253110110759735 -0.9869930148124695 255.0 56.0 1.0 1.0
1.9734633 0.0357669 1.5311315 -0.1464662253856659 -0.03882289677858353 -0.9884535074234009 253.0 56.0 1.0 1.0
1.8767323 0.059243198 1.5551121 -0.1395944505929947 -0.09115594625473022 -0.9860039949417114 250.0 57.0 1.0 1.0
1.8834006 0.039741926 1.5602112 -0.11525899171829224 -0.08894390612840652 -0.989345371723175 255.0 57.0 1.0 1.0
1.782709 0.061589651 1.5786563 -0.11424728482961655 -0.12857967615127563 -0.9850963950157166 255.0 58.0 1.0 1.0
1.7742593 0.043045472 1.570696 -0.1772676557302475 -0.12737734615802765 -0.9758848547935486 255.0 58.0 1.0 1.0
1.6696697 0.063842922 1.5834489 -0.09542308002710342 -0.01849081553518772 -0.9952650666236877 253.0 59.0 1.0 1.0
1.6876396 0.047149692 1.5999582 -0.09542308002710342 -0.01849081553518772 -0.9952650666236877 255.0 59.0 1.0 1.0
1.5761809 0.067450665 1.6042066 -0.11182043701410294 -0.03577583655714989 -0.9930843114852905 255.0 60.0 1.0 1.0
1.5767931 0.050970495 1.604202 -0.11182043701410294 -0.03577583655714989 -0.9930843114852905 255.0 60.0 1.0 1.0
1.4651004 0.070414476 1.6045443 -0.17886033654212952 -0.0815601497888565 -0.980488121509552 255.0 61.0 1.0 1.0
1.4765331 0.055494614 1.6163536 -0.12381529062986374 -0.056459661573171616 -0.9906977415084839 255.0 61.0 1.0 1.0
1.3845855 0.074548773 1.637778 -0.15532812476158142 -0.09057663381099701 -0.9837017059326172 255.0 62.0 1.0 1.0
1.3749589 0.059635021 1.625558 -0.15532812476158142 -0.09057663381099701 -0.9837017059326172 255.0 62.0 1.0 1.0
1.2784131 0.078035131 1.6412789 -0.12786702811717987 -0.10985389351844788 -0.9856886863708496 255.0 63.0 1.0 1.0
1.2791524 0.064672753 1.641275 -0.1688786894083023 -0.10917220264673233 -0.9795721173286438 255.0 63.0 1.0 1.0
7.3077693 0.082740955 -1.46541 0.11324119567871094 -0.9919075965881348 -0.057409752160310745 133.0 24.0 2.0 5.0
7.2650785 0.0061927508 -1.4567721 -0.04919124022126198 -0.7731813192367554 -0.632274329662323 160.0 24.0 2.0 5.0
10.937291 0.11555202 -1.9002337 0.010308603756129742 -0.9985548853874207 0.052745312452316284 13.0 25.0 2.0 5.0
10.906357 0.0010221826 -1.8947824 0.004240808077156544 -0.9937003254890442 0.11199050396680832 15.0 25.0 2.0 5.0
10.986814 0.1102404 -1.6173459 -0.011498410254716873 -0.9995406866073608 0.028037069365382195 15.0 26.0 2.0 5.0
10.943821 -0.002873129 -1.6109626 0.01082049123942852 -0.9996568560600281 0.023857515305280685 18.0 26.0 2.0 5.0
10.957151 0.10604565 -1.3275831 -0.04082706570625305 -0.9754552245140076 -0.21637997031211853 18.0 27.0 2.0 5.0
10.961617 -0.0086937062 -1.3280939 -0.07227841764688492 -0.9944221377372742 -0.0768149197101593 16.0 27.0 2.0 5.0
10.991696 0.10054463 -1.0460895 -0.14150138199329376 -0.9893313646316528 -0.03465002775192261 18.0 28.0 2.0 5.0
11.008061 -0.012651574 -1.0476358 -0.02963722124695778 -0.99885493516922 0.037555549293756485 19.0 28.0 2.0 5.0
11.030914 0.098899037 -0.76491523 0.015736054629087448 -0.9992700815200806 0.034807510673999786 20.0 29.0 2.0 5.0
11.035321 -0.016610751 -0.76522171 0.037434354424476624 -0.9918574690818787 0.12172660231590271 19.0 29.0 2.0 5.0
11.05488 0.097107321 -0.48341912 0.006295178551226854 -0.9889096617698669 0.1483846753835678 14.0 30.0 2.0 5.0
11.079254 -0.018688293 -0.48449919 -0.0002470639592502266 -0.9869154095649719 0.1612386554479599 13.0 30.0 2.0 5.0
11.123627 0.095688008 -0.20311874 -0.08727826923131943 -0.9948946833610535 -0.05066618323326111 9.0 31.0 2.0 5.0
7.504622 -0.013639248 -0.1367632 -0.05181062966585159 -0.9982061982154846 0.029998738318681717 127.0 31.0 2.0 6.0
11.240797 -1.9771994 0.084344454 0.015954509377479553 -0.9987761378288269 -0.046815767884254456 21.0 32.0 2.0 5.0
11.199804 -2.0911098 0.084179915 0.5088609457015991 -0.8599932193756104 0.03836808726191521 21.0 32.0 2.0 5.0
9.8091402 -1.7287592 0.32741866 -0.045251935720443726 -0.9989484548568726 -0.0073712910525500774 14.0 33.0 2.0 5.0
9.8572903 -1.8438684 0.32963136 0.08622577786445618 -0.9849041104316711 -0.15009649097919464 21.0 33.0 2.0 5.0
7.6247215 -1.3448801 0.6508857 0.059364285320043564 -0.9938399195671082 0.09358472377061844 17.0 35.0 2.0 5.0
7.5396895 -1.411412 0.64484841 0.0866282731294632 -0.9934244155883789 -0.07485654950141907 21.0 35.0 2.0 5.0
6.8536539 -1.2112195 0.76476282 0.0027565201744437218 -0.9966989159584045 0.08113936334848404 17.0 36.0 2.0 5.0
6.8093214 -1.277029 0.76125962 0.04747913032770157 -0.9880511164665222 0.14663052558898926 20.0 36.0 2.0 5.0
6.5974164 -1.1682823 0.91141194 0.028409453108906746 -0.9883384704589844 -0.1495993286371231 9.0 37.0 2.0 5.0
1.2521462 -0.32346877 -1.700323 0.06072838604450226 -0.01783960871398449 0.9979948997497559 255.0 0.0 1.0 1.0
1.253134 -0.30976579 -1.6971358 0.06072838604450226 -0.01783960871398449 0.9979948997497559 255.0 0.0 1.0 1.0
1.3795174 -0.34655932 -1.7205092 0.09633529931306839 0.017765749245882034 0.995190441608429 255.0 1.0 1.0 1.0
1.3855629 -0.33270177 -1.7235923 0.09633529931306839 0.017765749245882034 0.995190441608429 255.0 1.0 1.0 1.0
1.5007193 -0.36854827 -1.7309834 0.12493526935577393 -0.012409229762852192 0.9920872449874878 255.0 2.0 1.0 1.0
1.4993318 -0.35160214 -1.7250097 0.1614461988210678 -0.007326175458729267 0.9868543744087219 255.0 2.0 1.0 1.0
1.6418172 -0.39487219 -1.7563963 0.19588102400302887 0.04899583384394646 0.9794029593467712 255.0 3.0 1.0 1.0
1.6566769 -0.38015604 -1.767936 0.15275992453098297 0.004547429271042347 0.9882529377937317 255.0 3.0 1.0 1.0
1.7893031 -0.42291537 -1.7821076 0.10488734394311905 0.03208121284842491 0.9939665794372559 255.0 4.0 1.0 1.0
1.782452 -0.40163156 -1.7709616 0.10488734394311905 0.03208121284842491 0.9939665794372559 255.0 4.0 1.0 1.0
1.9127246 -0.44517091 -1.7771904 0.11561719328165054 0.046259887516498566 0.9922160506248474 250.0 5.0 1.0 1.0
1.9144049 -0.42448282 -1.774502 0.09028681367635727 0.02068590559065342 0.995701014995575 250.0 5.0 1.0 1.0
2.0895541 -0.47957674 -1.814485 0.14795129001140594 0.005921649280935526 0.9889769554138184 255.0 6.0 1.0 1.0
2.0885167 -0.45637155 -1.8093102 0.07681850343942642 0.00690242275595665 0.9970211982727051 255.0 6.0 1.0 1.0
2.2505898 -0.51047736 -1.8291061 0.0885004848241806 0.0033603694755584 0.9960705041885376 247.0 7.0 1.0 1.0
2.2527664 -0.4862282 -1.8266166 0.1411721110343933 0.0033398207742720842 0.9899795055389404 247.0 7.0 1.0 1.0
2.4284294 -0.54516733 -1.8494097 0.13869816064834595 0.018788374960422516 0.9901564717292786 247.0 8.0 1.0 1.0
2.4277456 -0.51837277 -1.8446314 0.07693052291870117 0.018915517255663872 0.9968570470809937 247.0 8.0 1.0 1.0
2.617986 -0.58162653 -1.8689777 0.09002607315778732 0.1000077947974205 0.9909055829048157 229.0 9.0 1.0 1.0
2.6207407 -0.55350929 -1.8666854 0.05288090929389 0.10027504712343216 0.9935534596443176 232.0 9.0 1.0 1.0
2.8357944 -0.62549269 -1.8973984 0.09572876989841461 0.04038001969456673 0.9945880174636841 226.0 10.0 1.0 1.0
2.8553104 -0.59852588 -1.9061521 0.09572876989841461 0.04038001969456673 0.9945880174636841 235.0 10.0 1.0 1.0
3.0932901 -0.67679137 -1.9388936 0.11464917659759521 0.060387641191482544 0.991568922996521 220.0 11.0 1.0 1.0
3.1069026 -0.64576191 -1.9430698 0.14029823243618011 0.08505867421627045 0.9864489436149597 232.0 11.0 1.0 1.0
3.358448 -0.72943413 -1.9692734 0.10055071115493774 0.04175078123807907 0.9940555691719055 202.0 12.0 1.0 1.0
3.3659194 -0.69423372 -1.9692687 0.12769444286823273 0.10308218747377396 0.9864421486854553 202.0 12.0 1.0 1.0
3.6813107 -0.79502028 -2.0185513 0.14250680804252625 -0.014617666602134705 0.9896859526634216 181.0 13.0 1.0 1.0
3.6721878 -0.75288856 -2.0090921 0.12642471492290497 0.005877065472304821 0.9919587969779968 196.0 13.0 1.0 1.0
4.0436673 -0.86901999 -2.0699563 0.09357886761426926 0.012992076575756073 0.9955271482467651 154.0 14.0 1.0 1.0
4.0560675 -0.82735187 -2.0717421 0.11595563590526581 0.04732605442404747 0.9921263456344604 175.0 14.0 1.0 1.0
4.4781942 -0.95768929 -2.1359828 0.1572723239660263 0.057575806975364685 0.9858754873275757 139.0 15.0 1.0 1.0
4.4595799 -0.90497386 -2.1224413 0.11249952763319016 -0.023121612146496773 0.9933826923370361 139.0 15.0 1.0 1.0
3.9781716 -0.050743815 -1.7275697 -0.029840171337127686 -0.9980759620666504 -0.05435008183121681 255.0 16.0 1.0 1.0
3.9821701 -0.0091022234 -1.7291541 -0.02630716562271118 -0.9981024265289307 -0.055672235786914825 255.0 16.0 1.0 1.0
4.0013728 -0.055268008 -1.6098472 0.044078849256038666 -0.9899869561195374 0.13410089910030365 255.0 17.0 1.0 1.0
3.979486 -0.013293479 -1.6008723 0.015226572751998901 -0.9978883862495422 0.0631425529718399 255.0 17.0 1.0 1.0
4.1334043 -0.062212668 -1.534431 0.12508948147296906 0.11757393926382065 0.9851543307304382 178.0 18.0 1.0 1.0
4.1300955 -0.018918274 -1.5330273 0.0974358320236206 -0.16049420833587646 0.9822157025337219 169.0 18.0 1.0 1.0
4.4643917 -0.071998611 -1.5227747 -0.04432559758424759 -0.9990066885948181 0.004584989510476589 238.0 19.0 1.0 1.0
4.4687028 -0.025277868 -1.5240558 0.05682985484600067 -0.9983733892440796 0.004582082852721214 241.0 19.0 1.0 1.0
4.491662 -0.07639768 -1.4004344 0.0061881328001618385 -0.9906460046768188 0.13631626963615417 253.0 20.0 1.0 1.0
4.4845948 -0.029317996 -1.3980401 0.030274629592895508 -0.9916514754295349 0.1253424882888794 244.0 20.0 1.0 1.0
4.5191226 -0.080847278 -1.2799114 0.04374423623085022 -0.9297021627426147 0.36570510268211365 238.0 21.0 1.0 1.0
4.5505228 -0.033768948 -1.2886275 0.019492587074637413 -0.9280115365982056 0.3720410466194153 255.0 21.0 1.0 1.0
4.6093292 -0.086539909 -1.1753304 0.04470139369368553 -0.9077286124229431 0.4171697497367859 255.0 22.0 1.0 1.0
4.6022463 -0.038214326 -1.1733403 0.057981643825769424 -0.8995471596717834 0.43295857310295105 255.0 22.0 1.0 1.0
4.6499462 -0.090590678 -1.0579337 0.08845894038677216 -0.8955435752868652 0.4360925853252411 208.0 23.0 1.0 1.0
4.6545548 -0.041942697 -1.0588102 0.10305143892765045 -0.8664175271987915 0.48857027292251587 214.0 23.0 1.0 1.0
4.9776368 -0.099699602 -0.9979493 -0.11009041219949722 -0.8914563059806824 -0.43952906131744385 109.0 24.0 1.0 2.0
