ply
format ascii 1.0
element vertex 431
property float x
property float y
property float z
property float nx
property float ny
property float nz
property float intensity
property float ring
property float return
property float label
end_header
5.1011271 -0.090834901 0.9652409 -0.00836116448044777 -0.9920583963394165 0.12549960613250732 25.0 39.0 1.0 2.0
5.039012 -0.036903974 0.9530791 0.009626463055610657 -0.992047131061554 0.1254981905221939 24.0 39.0 1.0 2.0
4.9962988 -0.089817166 1.0803118 -0.05003637075424194 -0.977975606918335 -0.20263266563415527 24.0 40.0 1.0 2.0
4.9814377 -0.037369844 1.0766323 -0.0415920726954937 -0.9734705686569214 -0.2250003069639206 21.0 40.0 1.0 0.0
5.044219 -0.093417421 1.2291337 -0.048210419714450836 -0.981194257736206 -0.18690568208694458 31.0 41.0 1.0 2.0
5.0489306 -0.04063493 1.2297618 -0.058425288647413254 -0.9839521646499634 -0.16859598457813263 29.0 41.0 1.0 2.0
5.2731452 -0.10066791 1.4308655 -0.056139424443244934 -0.9800116419792175 -0.19085511565208435 35.0 42.0 1.0 5.0
5.3126569 -0.045820933 1.4409779 -0.06339375674724579 -0.9790656566619873 -0.1934208869934082 34.0 42.0 1.0 5.0
4.7009602 -0.092565157 1.4104402 -0.07652353495359421 -0.2811799645423889 -0.956599235534668 166.0 43.0 1.0 1.0
4.7171345 -0.043500625 1.4147298 -0.0525614358484745 -0.24333573877811432 -0.9685168862342834 178.0 43.0 1.0 1.0
4.3922601 -0.089267693 1.4458272 -0.1504146009683609 -0.040278200060129166 -0.9878021478652954 184.0 44.0 1.0 1.0
4.3930902 -0.043280505 1.4455526 -0.10676828026771545 -0.11242125183343887 -0.987907886505127 163.0 44.0 1.0 1.0
4.1149125 -0.086209022 1.4777797 -0.2781609892845154 -0.5486325621604919 -0.7884343862533569 250.0 45.0 1.0 1.0
4.0931334 -0.042865492 1.4694345 -0.12329574674367905 -0.5580497980117798 -0.82059645652771 226.0 45.0 1.0 1.0
4.025671 -0.087730803 1.5680714 -0.08201707899570465 -0.19401757419109344 -0.9775635004043579 255.0 46.0 1.0 1.0
4.0451555 -0.045815222 1.5750588 -0.1422145813703537 -0.17775718867778778 -0.9737439751625061 255.0 46.0 1.0 1.0
3.5687733 -0.079713523 1.5032724 -0.11493569612503052 -0.040743403136730194 -0.9925370216369629 255.0 47.0 1.0 1.0
3.5658643 -0.042302277 1.5015007 -0.12272609770298004 -0.05738978087902069 -0.9907798171043396 255.0 47.0 1.0 1.0
3.4354022 0.60734993 1.5809709 -0.11040367186069489 -0.08555015921592712 -0.9901980757713318 247.0 48.0 1.0 1.0
3.4182489 0.64127517 1.5758209 -0.0870726928114891 -0.05800902843475342 -0.994511604309082 238.0 48.0 1.0 1.0
3.2202272 0.57370204 1.5931605 -0.13250023126602173 -0.03157949820160866 -0.9906798005104065 255.0 49.0 1.0 1.0
3.2424786 0.61268491 1.6069489 -0.12549637258052826 -0.029577234759926796 -0.9916530847549438 255.0 49.0 1.0 1.0
3.0275846 0.54408664 1.606653 -0.14634093642234802 -0.058729518204927444 -0.9874893426895142 250.0 50.0 1.0 1.0
3.0323248 0.57772404 1.6120145 -0.07744061946868896 0.008545102551579475 -0.9969603419303894 253.0 50.0 1.0 1.0
2.8567796 0.51888591 1.6233165 -0.1628890186548233 -0.054795198142528534 -0.9851216077804565 255.0 51.0 1.0 1.0
2.865063 0.55137962 1.6309371 -0.14850236475467682 -0.06817059218883514 -0.9865596294403076 255.0 51.0 1.0 1.0
2.6939423 0.49405208 1.6366184 -0.1805683672428131 -0.046089936047792435 -0.9824819564819336 255.0 52.0 1.0 1.0
2.6853952 0.5215717 1.6344078 -0.17597921192646027 -0.04135806858539581 -0.983524739742279 253.0 52.0 1.0 1.0
2.542021 0.47162464 1.6493534 -0.11659900099039078 -0.06614337861537933 -0.9909741282463074 255.0 53.0 1.0 1.0
2.5139048 0.49369192 1.6341671 -0.1280413419008255 -0.07263430207967758 -0.9891055226325989 253.0 53.0 1.0 1.0
2.3807769 0.44774291 1.6495625 -0.08548878133296967 -0.09836776554584503 -0.9914712905883789 255.0 54.0 1.0 1.0
2.3955851 0.47647303 1.6629046 -0.08548878133296967 -0.09836776554584503 -0.9914712905883789 255.0 54.0 1.0 1.0
2.2465487 0.42821655 1.6616461 -0.13485822081565857 -0.04138278216123581 -0.9900003671646118 255.0 55.0 1.0 1.0
2.2420909 0.4517042 1.6615107 -0.10144523531198502 -0.02422165870666504 -0.9945462346076965 255.0 55.0 1.0 1.0
2.1064811 0.40810528 1.6635749 -0.18623822927474976 -0.061288412660360336 -0.9805911779403687 253.0 56.0 1.0 1.0
2.114646 0.43263906 1.6732373 -0.10144908726215363 -0.06566450744867325 -0.9926713109016418 255.0 56.0 1.0 1.0
1.9914994 0.3928068 1.6803181 -0.12534840404987335 -0.05682949349284172 -0.990483820438385 255.0 57.0 1.0 1.0
1.9783657 0.41175997 1.6725568 -0.12222006171941757 -0.056851841509342194 -0.9908734560012817 250.0 57.0 1.0 1.0
1.8587857 0.37326676 1.6770965 -0.10683324187994003 -0.05652867630124092 -0.9926687479019165 244.0 58.0 1.0 1.0
1.8696028 0.39576882 1.690219 -0.09644507616758347 -0.04605929180979729 -0.9942720532417297 255.0 58.0 1.0 1.0
1.7490582 0.35879597 1.6912488 -0.1434098780155182 -0.06242106854915619 -0.9876928925514221 255.0 59.0 1.0 1.0
1.7453568 0.37707794 1.6911436 -0.12888115644454956 -0.0625469982624054 -0.9896854758262634 255.0 59.0 1.0 1.0
1.6412855 0.34537652 1.7046449 -0.1303766965866089 -0.07715126127004623 -0.9884582161903381 255.0 60.0 1.0 1.0
1.6432188 0.36373004 1.7102427 -0.12700796127319336 -0.07374492287635803 -0.9891565442085266 255.0 60.0 1.0 1.0
1.5379412 0.33299953 1.7204304 -0.12322119623422623 -0.08733851462602615 -0.9885285496711731 255.0 61.0 1.0 1.0
1.5213377 0.34611106 1.7055943 -0.10510504245758057 -0.08752173185348511 -0.9906022548675537 255.0 61.0 1.0 1.0
1.4052644 0.31383324 1.6997324 -0.15923437476158142 -0.06089349091053009 -0.9853610396385193 253.0 62.0 1.0 1.0
1.4197081 0.33259743 1.7209942 -0.10467013716697693 -0.005417864304035902 -0.9944922924041748 255.0 62.0 1.0 1.0
1.3189782 0.30550286 1.7337263 -0.1510285586118698 -0.09405122697353363 -0.9840450882911682 255.0 63.0 1.0 1.0
1.3206556 0.32043058 1.739948 -0.15420842170715332 -0.07171829789876938 -0.9854320287704468 255.0 63.0 1.0 1.0
6.3634791 1.0856296 -1.835627 -0.12031185626983643 -0.7224069237709045 0.6809210181236267 20.0 21.0 2.0 5.0
6.3251958 1.1474386 -1.8283346 -0.008483233861625195 -0.9997645616531372 -0.019970308989286423 22.0 21.0 2.0 5.0
7.2158527 1.2251601 -1.8748606 0.3362780213356018 -0.890677809715271 0.3059577941894531 29.0 22.0 2.0 5.0
7.1377349 1.289011 -1.858382 0.22392086684703827 -0.921683669090271 0.3167942464351654 30.0 22.0 2.0 5.0
8.3925133 1.4195349 -1.9469186 0.26447492837905884 -0.9484902620315552 0.17441122233867645 27.0 23.0 2.0 5.0
8.3348999 1.4997889 -1.9375912 0.2343532294034958 -0.9517417550086975 0.19815722107887268 27.0 23.0 2.0 5.0
9.9865351 1.6845062 -2.0431643 0.08679157495498657 -0.9819263219833374 0.16818983852863312 32.0 24.0 2.0 5.0
9.914237 1.7793392 -2.0326672 0.11463431268930435 -0.9687693119049072 0.21987499296665192 35.0 24.0 2.0 5.0
10.976756 1.8407276 -1.65135 0.07083935290575027 -0.9853142499923706 -0.15536241233348846 20.0 26.0 2.0 5.0
10.929555 1.9507357 -1.6478913 -0.022493943572044373 -0.9957412481307983 -0.08940581232309341 19.0 26.0 2.0 5.0
11.011392 1.8442485 -1.3655676 -0.09913305193185806 -0.9930604100227356 0.06327520310878754 16.0 27.0 2.0 5.0
16.643639 2.9648025 -2.0709207 -0.06236898526549339 -0.9978814721107483 0.018509672954678535 13.0 27.0 2.0 6.0
10.948726 1.947624 -1.0716417 0.09493305534124374 -0.9794079661369324 0.17817911505699158 6.0 28.0 2.0 5.0
10.964637 1.831893 -0.78336912 0.010048151016235352 -0.9998819231987 -0.01162153109908104 10.0 29.0 2.0 5.0
21.331955 -0.3688364 0.15379485 0.02501888945698738 -0.9989227056503296 0.039082348346710205 27.0 32.0 2.0 6.0
21.398699 -0.14588572 0.15291059 -0.08112945407629013 -0.9912075996398926 -0.1045253798365593 24.0 32.0 2.0 6.0
21.357128 -0.37349579 0.69818568 -0.08192469924688339 -0.9912508130073547 0.10348999500274658 25.0 33.0 2.0 6.0
21.439913 -0.15041465 0.69944793 -0.009411743842065334 -0.9993851780891418 0.03377503529191017 21.0 33.0 2.0 6.0
21.432322 -0.37531084 1.2480171 -0.06906779110431671 -0.9967016577720642 -0.042607493698596954 27.0 34.0 2.0 6.0
21.53503 -0.15159374 1.2524685 0.015018568374216557 -0.9998799562454224 0.003802323481068015 14.0 34.0 2.0 6.0
21.473381 -0.37276146 1.8011886 -0.09637095034122467 -0.9899805784225464 0.10320395976305008 26.0 35.0 2.0 6.0
11.112687 -0.074393168 0.93333173 -0.030034299939870834 -0.9985967874526978 0.043616972863674164 17.0 35.0 2.0 5.0
21.555517 -0.37841961 2.3645232 -0.04343005269765854 -0.9984040856361389 -0.036098457872867584 26.0 36.0 2.0 6.0
9.7691727 -0.06677679 1.0731573 0.030213171616196632 -0.993907630443573 0.10599485784769058 21.0 36.0 2.0 5.0
21.681986 -0.39283976 3.5135062 0.028890948742628098 -0.9842057228088379 0.17465536296367645 14.0 38.0 2.0 6.0
6.7046409 -0.12087581 1.2673341 -0.00836116448044777 -0.9920583963394165 0.12549960613250732 11.0 39.0 2.0 5.0
6.7135258 -0.050735477 1.2683969 0.009626463055610657 -0.992047131061554 0.1254981905221939 15.0 39.0 2.0 5.0
6.4243283 -0.049572609 1.38726 -0.0415920726954937 -0.9734705686569214 -0.2250003069639206 11.0 40.0 2.0 5.0
1.1991826 -0.10974231 -1.5821576 0.1326364129781723 0.0774969682097435 0.988130509853363 255.0 0.0 1.0 1.0
1.2026243 -0.09736421 -1.5854188 0.1370183378458023 0.07745034992694855 0.9875360131263733 255.0 0.0 1.0 1.0
1.3062329 -0.11012742 -1.5844218 0.11582605540752411 0.017207833006978035 0.9931204319000244 255.0 1.0 1.0 1.0
1.3072623 -0.09642417 -1.584504 0.059258945286273956 0.017293989658355713 0.9980928301811218 255.0 1.0 1.0 1.0
1.4217534 -0.11173394 -1.5962026 0.08117298036813736 0.0705360546708107 0.9942010045051575 255.0 2.0 1.0 1.0
1.4148275 -0.096254326 -1.5873344 0.08791357278823853 0.07049557566642761 0.9936304688453674 255.0 2.0 1.0 1.0
1.5438712 -0.1133659 -1.6087632 0.1052369773387909 0.08058348298072815 0.9911768436431885 255.0 3.0 1.0 1.0
1.5366272 -0.09662874 -1.6002036 0.15450352430343628 0.08006041496992111 0.984743058681488 255.0 3.0 1.0 1.0
1.6517019 -0.1142145 -1.6032765 0.2188805192708969 0.04128511995077133 0.9748778939247131 255.0 4.0 1.0 1.0
1.6498891 -0.096717849 -1.6005942 0.13733933866024017 0.04191015288233757 0.989637017250061 255.0 4.0 1.0 1.0
1.7859545 -0.11689578 -1.6181282 0.12371857464313507 0.1263926923274994 0.9842349886894226 255.0 5.0 1.0 1.0
1.7899853 -0.098338231 -1.6209264 0.16880843043327332 0.10120746493339539 0.9804391264915466 255.0 5.0 1.0 1.0
1.9152443 -0.11895453 -1.6224689 0.12836956977844238 0.01160276960581541 0.9916585087776184 255.0 6.0 1.0 1.0
1.9224243 -0.099201746 -1.6277615 0.17457735538482666 0.029085412621498108 0.9842138886451721 255.0 6.0 1.0 1.0
2.0575447 -0.12204392 -1.6319683 0.16791889071464539 0.1029428243637085 0.980411171913147 255.0 7.0 1.0 1.0
2.0336223 -0.099196836 -1.6122035 0.1702004373073578 0.10290195047855377 0.9800218939781189 247.0 7.0 1.0 1.0
2.2070858 -0.12554905 -1.6409281 0.11212189495563507 0.02833540551364422 0.993290364742279 255.0 8.0 1.0 1.0
2.2050185 -0.10225596 -1.6386786 0.13691885769367218 0.028246663510799408 0.9901794791221619 255.0 8.0 1.0 1.0
2.3546071 -0.12821946 -1.6415716 0.11040602624416351 0.04485222324728966 0.992874026298523 253.0 9.0 1.0 1.0
2.3492112 -0.10323647 -1.6371408 0.1102832555770874 0.0448528416454792 0.9928876757621765 255.0 9.0 1.0 1.0
2.5433376 -0.13417669 -1.6622401 0.1333455592393875 0.008027677424252033 0.991037130355835 253.0 10.0 1.0 1.0
2.5044177 -0.1057518 -1.63612 0.09047383815050125 0.008066793903708458 0.9958661794662476 235.0 10.0 1.0 1.0
2.7105327 -0.13787296 -1.6599505 0.12034295499324799 0.045071523636579514 0.9917086958885193 238.0 11.0 1.0 1.0
2.7288063 -0.11017749 -1.6705741 0.14382655918598175 0.0385502353310585 0.9888517260551453 247.0 11.0 1.0 1.0
2.9347486 -0.14432663 -1.6817216 0.18235960602760315 0.032841626554727554 0.9826833009719849 244.0 12.0 1.0 1.0
2.9291074 -0.11328909 -1.6779237 0.13670237362384796 -0.00822470523416996 0.9905779957771301 241.0 12.0 1.0 1.0
3.1504962 -0.15070139 -1.6885095 0.16062630712985992 0.06303761899471283 0.9850001931190491 235.0 13.0 1.0 1.0
3.1518428 -0.11768284 -1.6887065 0.11581192910671234 0.030706079676747322 0.9927963614463806 232.0 13.0 1.0 1.0
3.4039803 -0.15888357 -1.7034361 0.0880802795290947 -0.022905999794602394 0.9958500266075134 223.0 14.0 1.0 1.0
3.391103 -0.12267398 -1.6964808 0.12983232736587524 -0.022800739854574203 0.991273820400238 211.0 14.0 1.0 1.0
3.6961799 -0.16826648 -1.7237375 0.13685494661331177 0.037318747490644455 0.9898878931999207 208.0 15.0 1.0 1.0
3.6904345 -0.12927009 -1.7205834 0.14367888867855072 0.04293104261159897 0.9886927604675293 220.0 15.0 1.0 1.0
3.7799177 0.58167702 -1.6639743 0.16069616377353668 0.08659794926643372 0.9831976890563965 223.0 16.0 1.0 1.0
3.7590895 0.61888051 -1.657804 0.09899817407131195 0.08474425971508026 0.9914724826812744 217.0 16.0 1.0 1.0
4.102519 0.62730676 -1.6732944 0.06979593634605408 -0.10645204782485962 0.9918651580810547 196.0 17.0 1.0 1.0
4.0773654 0.66727686 -1.6660457 0.1794273853302002 -0.04741181433200836 0.9826281070709229 196.0 17.0 1.0 1.0
4.205864 0.63850147 -1.5827011 0.010817239992320538 0.034179192036390305 0.9993572235107422 37.0 18.0 1.0 1.0
4.4911704 0.72972584 -1.6934229 0.010723169893026352 0.09880974143743515 0.995048463344574 214.0 18.0 1.0 1.0
4.2057667 0.6347208 -1.453968 0.10707365721464157 -0.9828187227249146 0.15034130215644836 39.0 19.0 1.0 1.0
4.6396761 0.74953657 -1.607325 -0.006039842031896114 -0.9934489130973816 0.11411765962839127 255.0 19.0 1.0 1.0
4.0806155 0.61302197 -1.2893194 -0.015244820155203342 -0.6999599933624268 0.7140192985534668 103.0 20.0 1.0 1.0
4.8691792 0.78286475 -1.5420855 0.04978320375084877 -0.6944108009338379 0.7178547382354736 226.0 20.0 1.0 1.0
6.4686823 0.96447444 -1.8589468 -0.24515004456043243 -0.9661926627159119 0.07983231544494629 20.0 21.0 1.0 1.0
4.7941666 0.76738036 -1.3792155 0.8681660294532776 -0.37258824706077576 0.3278196156024933 24.0 21.0 1.0 1.0
4.9786735 0.73972082 -1.2873634 -0.24614673852920532 -0.9654602408409119 0.08543121814727783 13.0 22.0 1.0 1.0
4.9476604 0.78819317 -1.2816972 0.40292036533355713 -0.8509331941604614 0.3369982838630676 11.0 22.0 1.0 2.0
4.7907009 0.70931041 -1.1052999 -0.21581165492534637 -0.9713302850723267 0.09971372038125992 25.0 23.0 1.0 0.0
4.8022442 0.76249093 -1.1100568 0.28568992018699646 -0.9483940601348877 0.13758589327335358 24.0 23.0 1.0 0.0
4.9535236 0.73139751 -1.0073987 0.0 0.0 0.0 13.0 24.0 1.0 0.0
4.9688148 0.78690118 -1.012452 -0.17489303648471832 -0.9795695543289185 0.09927651286125183 15.0 24.0 1.0 2.0
4.779386 0.70318186 -0.84200102 0.0 0.0 0.0 28.0 25.0 1.0 0.0
4.7795386 0.75442338 -0.84367043 0.0 0.0 0.0 29.0 25.0 1.0 0.0
4.9876294 0.73173082 -0.74500144 0.08069480210542679 -0.9731403589248657 -0.21560657024383545 19.0 26.0 1.0 2.0
4.9718757 0.78270519 -0.74412608 0.027471981942653656 -0.9677017331123352 -0.25059664249420166 20.0 26.0 1.0 2.0
4.9618921 0.72696227 -0.61043721 0.06607494503259659 -0.9961830973625183 -0.05703769251704216 22.0 27.0 1.0 2.0
4.9932423 0.78502238 -0.61560529 0.06767459213733673 -0.9966571927070618 0.04576592519879341 22.0 27.0 1.0 2.0
5.0234318 0.73399866 -0.48602065 0.11945834010839462 -0.9623434543609619 0.24418210983276367 28.0 28.0 1.0 2.0
5.0272884 0.78840947 -0.48747805 0.0248368289321661 -0.9483228921890259 0.31633350253105164 26.0 28.0 1.0 2.0
5.0381913 0.73600352 -0.35591114 -0.016829973086714745 -0.9998576641082764 0.0012038423446938396 19.0 29.0 1.0 2.0
5.0302315 0.78872699 -0.35621536 0.05598007142543793 -0.9978646636009216 0.03365228697657585 28.0 29.0 1.0 2.0
5.0140309 0.73235112 -0.22436137 -0.01749345287680626 -0.9996292591094971 0.020865805447101593 22.0 30.0 1.0 2.0
4.9903269 0.78235871 -0.22394232 -0.057987798005342484 -0.995166003704071 0.07925871759653091 26.0 30.0 1.0 2.0
5.0260987 0.73395407 -0.095519558 -0.043872006237506866 -0.9943940043449402 0.09620782732963562 23.0 31.0 1.0 2.0
5.0260801 0.78778011 -0.095980465 0.01575211063027382 -0.9980237483978271 0.060831218957901 21.0 31.0 1.0 2.0
5.0358901 -0.18931168 0.040128801 0.006295178551226854 -0.9889096617698669 0.1483846753835678 82.0 32.0 1.0 2.0
5.0456424 -0.13678868 0.039871473 -0.04043467715382576 -0.9979130625724792 0.05034409835934639 82.0 32.0 1.0 2.0
5.0372987 -0.1903625 0.16857886 -0.006744049023836851 -0.9995260238647461 0.03003840148448944 29.0 33.0 1.0 2.0
5.0230875 -0.13715172 0.16774423 -0.06461896002292633 -0.9971729516983032 0.038348179310560226 28.0 33.0 1.0 2.0
5.0314727 -0.19025144 0.29697639 0.006710940971970558 -0.9981460571289062 -0.06049370393157005 26.0 34.0 1.0 2.0
5.0412364 -0.13777871 0.29712665 0.04255888611078262 -0.998349666595459 0.038560107350349426 26.0 34.0 1.0 2.0
5.0383306 -0.18974735 0.4266901 0.020189359784126282 -0.9985884428024292 -0.049128200858831406 27.0 35.0 1.0 2.0
5.0600367 -0.13753773 0.42804495 0.061095986515283585 -0.9971018433570862 -0.04533463343977928 24.0 35.0 1.0 2.0
5.0536628 -0.19132802 0.55852449 -0.009725472889840603 -0.9973492622375488 -0.07210874557495117 24.0 36.0 1.0 2.0
5.05547 -0.13840085 0.55820948 -0.052499040961265564 -0.9961410164833069 -0.07033514976501465 25.0 36.0 1.0 2.0
5.0059924 -0.19045199 0.68432122 -0.08628145605325699 -0.9827306866645813 -0.16369472444057465 229.0 37.0 1.0 1.0
5.0434599 -0.13903953 0.68884999 -0.052628569304943085 -0.9925370812416077 -0.11000187695026398 255.0 37.0 1.0 1.0
5.089447 -0.19557528 0.82908821 0.03642754256725311 -0.9960114359855652 0.08145147562026978 26.0 38.0 1.0 2.0
5.071578 -0.1417073 0.82557476 0.05013079568743706 -0.9853037595748901 0.1632893830537796 22.0 38.0 1.0 2.0
5.0821772 -0.197152 0.96290582 0.02883867360651493 -0.9934959411621094 0.11015486717224121 24.0 39.0 1.0 2.0
6.6321545 -0.18909746 1.2544177 -0.0526941753923893 -0.9899907112121582 0.13092640042304993 17.0 39.0 1.0 5.0
4.9071317 -0.19113694 1.0623909 -0.09010031819343567 -0.9784802794456482 -0.18562908470630646 24.0 40.0 1.0 0.0
4.9363365 -0.1405527 1.0679811 -0.06972600519657135 -0.9787915349006653 -0.19262714684009552 21.0 40.0 1.0 0.0
5.0486727 -0.19948161 1.2316434 -0.05711517855525017 -0.9823697209358215 -0.17800989747047424 31.0 41.0 1.0 2.0
5.0506067 -0.146613 1.2313286 -0.05666342005133629 -0.9807371497154236 -0.18693287670612335 32.0 41.0 1.0 2.0
5.3081818 -0.21279754 1.4419652 -0.04483899101614952 -0.9809826612472534 -0.18884484469890594 34.0 42.0 1.0 5.0
5.3141136 -0.15732971 1.4426789 -0.05229969695210457 -0.9803632497787476 -0.1901385635137558 34.0 42.0 1.0 5.0
4.6824007 -0.19048715 1.4064316 -0.12179825454950333 -0.06432624161243439 -0.9904682636260986 181.0 43.0 1.0 1.0
4.7149143 -0.14241038 1.4153104 -0.2016890048980713 -0.03582121431827545 -0.9787943363189697 184.0 43.0 1.0 1.0
4.3587713 -0.18007189 1.4363848 -0.14470334351062775 -0.08798636496067047 -0.9855553507804871 172.0 44.0 1.0 1.0
4.3567548 -0.13430977 1.4348656 -0.07700572907924652 -0.06073503941297531 -0.9951791167259216 133.0 44.0 1.0 1.0
4.0818243 -0.17119253 1.4674931 -0.04176591336727142 -0.9475265741348267 -0.31693682074546814 229.0 45.0 1.0 1.0
4.0797658 -0.12832972 1.4658902 0.007976817898452282 -0.9296451210975647 -0.36836981773376465 238.0 45.0 1.0 1.0
3.9854074 -0.17050447 1.5540776 -0.12323317676782608 -0.2282806783914566 -0.9657647609710693 255.0 46.0 1.0 1.0
4.0206552 -0.12989494 1.5668638 -0.13422049582004547 -0.22491149604320526 -0.9650905728340149 255.0 46.0 1.0 1.0
3.5328777 -0.15306853 1.4897637 -0.11571893841028214 -0.046312447637319565 -0.9922017455101013 255.0 47.0 1.0 1.0
3.5270536 -0.11582641 1.4864455 -0.11598727852106094 -0.04631098732352257 -0.9921704530715942 250.0 47.0 1.0 1.0
3.4254711 0.5318327 1.5715116 -0.1637728214263916 -0.0924663096666336 -0.9821549654006958 250.0 48.0 1.0 1.0
3.434243 0.57002956 1.5778968 -0.1762114018201828 -0.08118272572755814 -0.9809989333152771 244.0 48.0 1.0 1.0
3.23125 0.50602967 1.593562 -0.14049452543258667 -0.0613151490688324 -0.9881810545921326 255.0 49.0 1.0 1.0
3.233017 0.54100329 1.596864 -0.1746554970741272 -0.0609775148332119 -0.9827396273612976 255.0 49.0 1.0 1.0
3.0345232 0.47990927 1.6051807 -0.1034165471792221 -0.032009225338697433 -0.9941229820251465 255.0 50.0 1.0 1.0
3.0154827 0.50930279 1.5976038 -0.1299598217010498 -0.058865178376436234 -0.9897704124450684 244.0 50.0 1.0 1.0
2.8356791 0.45392177 1.6061307 -0.08922185748815536 -0.020334769040346146 -0.9958042502403259 253.0 51.0 1.0 1.0
2.8619142 0.48882374 1.6234982 -0.1628890186548233 -0.054795198142528534 -0.9851216077804565 255.0 51.0 1.0 1.0
2.6728749 0.43253809 1.6185132 -0.15489400923252106 -0.08356927335262299 -0.984390139579773 250.0 52.0 1.0 1.0
2.6852782 0.46338394 1.6285948 -0.12122311443090439 -0.04651462659239769 -0.9915348291397095 255.0 52.0 1.0 1.0
2.5277314 0.41440785 1.6346292 -0.14826032519340515 -0.021704573184251785 -0.9887101650238037 255.0 53.0 1.0 1.0
2.5367005 0.44314104 1.6430691 -0.14826032519340515 -0.021704573184251785 -0.9887101650238037 255.0 53.0 1.0 1.0
2.382808 0.3966181 1.6453582 -0.1723446398973465 -0.10184577852487564 -0.9797574877738953 255.0 54.0 1.0 1.0
2.3721542 0.42039144 1.6407188 -0.14602011442184448 -0.10286565124988556 -0.9839191436767578 255.0 54.0 1.0 1.0
2.2547271 0.38098377 1.6619209 -0.15746420621871948 -0.03390996530652046 -0.9869423508644104 255.0 55.0 1.0 1.0
2.2507629 0.40455937 1.6617854 -0.14791743457317352 -0.04130488634109497 -0.9881367683410645 255.0 55.0 1.0 1.0
2.1049123 0.36222237 1.6564876 -0.06972972303628922 -0.053247369825839996 -0.9961438775062561 255.0 56.0 1.0 1.0
2.1136053 0.38648114 1.6661521 -0.18623822927474976 -0.061288412660360336 -0.9805911779403687 255.0 56.0 1.0 1.0
1.9807595 0.34776744 1.6652733 -0.10638831555843353 -0.08049727231264114 -0.9910609722137451 250.0 57.0 1.0 1.0
1.986257 0.37015143 1.6727971 -0.10638831555843353 -0.08049727231264114 -0.9910609722137451 253.0 57.0 1.0 1.0
1.8777069 0.33626038 1.6879106 -0.12484531104564667 -0.0619385726749897 -0.9902410507202148 255.0 58.0 1.0 1.0
1.8653914 0.3542324 1.6798561 -0.11941729485988617 -0.05644721910357475 -0.9912382960319519 255.0 58.0 1.0 1.0
1.7444469 0.31993639 1.6804667 -0.08215643465518951 -0.019605204463005066 -0.9964266419410706 250.0 59.0 1.0 1.0
1.7440058 0.33871895 1.68311 -0.10113267600536346 -0.019570844247937202 -0.9946803450584412 250.0 59.0 1.0 1.0
1.6478554 0.31084743 1.704841 -0.12460393458604813 -0.061593566089868546 -0.9902929067611694 255.0 60.0 1.0 1.0
1.6336403 0.32590309 1.6933479 -0.13986220955848694 -0.0770506039261818 -0.987168550491333 253.0 60.0 1.0 1.0
1.5336568 0.29860324 1.7088161 -0.1558295637369156 -0.12218299508094788 -0.9801982045173645 255.0 61.0 1.0 1.0
1.5279492 0.31409553 1.7057751 -0.15771540999412537 -0.12214595079421997 -0.9799010753631592 255.0 61.0 1.0 1.0
1.4086869 0.28375497 1.6968479 -0.12869463860988617 -0.007264307700097561 -0.9916577339172363 253.0 62.0 1.0 1.0
1.415923 0.30059561 1.7089629 -0.15923437476158142 -0.06089349091053009 -0.9853610396385193 255.0 62.0 1.0 1.0
1.3102981 0.27475047 1.7149764 -0.14455263316631317 -0.09414330124855042 -0.9850084185600281 255.0 63.0 1.0 1.0
1.317135 0.29053429 1.7275004 -0.14455263316631317 -0.09414330124855042 -0.9850084185600281 255.0 63.0 1.0 1.0
6.4581714 1.0321481 -1.8593168 0.9477401375770569 -0.015662774443626404 -0.31865859031677246 22.0 21.0 2.0 1.0
7.3819118 1.0945966 -1.910726 -0.24684704840183258 -0.965293288230896 0.08529632538557053 28.0 22.0 2.0 1.0
7.2934389 1.1597353 -1.8912812 0.40292036533355713 -0.8509331941604614 0.3369982838630676 30.0 22.0 2.0 5.0
8.6674566 1.2796457 -2.0030136 -0.21581165492534637 -0.9713302850723267 0.09971372038125992 25.0 23.0 2.0 5.0
10.314641 1.518091 -2.1020837 0.0 0.0 0.0 32.0 24.0 2.0 0.0
10.274857 1.6223835 -2.0979502 -0.17489303648471832 -0.9795695543289185 0.09927651286125183 32.0 24.0 2.0 5.0
10.973893 1.6045446 -1.6440601 -0.13805274665355682 -0.9867444038391113 -0.08530457317829132 20.0 26.0 2.0 5.0
10.964252 1.7206129 -1.6458969 0.027471981942653656 -0.9677017331123352 -0.25059664249420166 21.0 26.0 2.0 5.0
10.957348 1.5998843 -1.3529619 0.06607494503259659 -0.9961830973625183 -0.05703769251704216 14.0 27.0 2.0 5.0
10.951724 1.7163937 -1.3550818 0.06767459213733673 -0.9966571927070618 0.04576592519879341 17.0 27.0 2.0 5.0
10.882448 1.5848043 -1.0576538 0.043229710310697556 -0.9169328808784485 0.39669284224510193 10.0 28.0 2.0 5.0
19.456728 3.0372398 -0.8850351 -0.057987798005342484 -0.995166003704071 0.07925871759653091 21.0 30.0 2.0 6.0
19.516342 3.0459323 -0.38455588 0.01575211063027382 -0.9980237483978271 0.060831218957901 12.0 31.0 2.0 6.0
11.051285 -0.42081928 0.083106495 0.006295178551226854 -0.9889096617698669 0.1483846753835678 14.0 32.0 2.0 5.0
21.302866 -0.59193528 0.15498294 0.02615996077656746 -0.9983880519866943 0.0503680594265461 13.0 32.0 2.0 6.0
11.077566 -0.42402744 0.36574021 -0.006744049023836851 -0.9995260238647461 0.03003840148448944 12.0 33.0 2.0 5.0
21.303988 -0.59619319 0.69798332 -0.06461896002292633 -0.9971729516983032 0.038348179310560226 24.0 33.0 2.0 6.0
11.060764 -0.42363393 0.64786047 0.006721728015691042 -0.999750554561615 0.021297374740242958 9.0 34.0 2.0 5.0
21.363213 -0.59836227 1.2456697 0.04258091002702713 -0.9988664388656616 0.021278539672493935 25.0 34.0 2.0 6.0
7.4879179 -0.28423199 0.63211304 0.020189359784126282 -0.9985884428024292 -0.049128200858831406 20.0 35.0 2.0 6.0
21.436251 -0.59716612 1.7998853 0.03687388449907303 -0.9990975856781006 -0.021080991253256798 26.0 35.0 2.0 6.0
9.6824436 -0.37072283 1.0662667 -0.009725472889840603 -0.9973492622375488 -0.07210874557495117 4.0 36.0 2.0 5.0
21.466698 -0.60223955 2.3567481 -0.052499040961265564 -0.9961410164833069 -0.07033514976501465 27.0 36.0 2.0 6.0
21.451448 -0.83875918 3.4810596 -0.037198252975940704 -0.9959830641746521 0.08144915848970413 23.0 38.0 2.0 6.0
21.561935 -0.61707419 3.4963474 0.05013079568743706 -0.9853037595748901 0.1632893830537796 26.0 38.0 2.0 6.0
21.562757 -0.85104609 4.0718431 0.02883867360651493 -0.9934959411621094 0.11015486717224121 26.0 39.0 2.0 6.0
21.55114 -0.62466705 4.0668001 -0.0526941753923893 -0.9899907112121582 0.13092640042304993 25.0 39.0 2.0 6.0
21.641466 -0.8582682 4.6710467 -0.09010031819343567 -0.9784802794456482 -0.18562908470630646 32.0 40.0 2.0 6.0
21.622242 -0.63084275 4.663806 -0.06972600519657135 -0.9787915349006653 -0.19262714684009552 25.0 40.0 2.0 6.0
20.781895 -0.83514696 5.0567203 -0.05711517855525017 -0.9823697209358215 -0.17800989747047424 22.0 41.0 2.0 6.0
21.62908 -0.64263678 5.2593317 -0.05666342005133629 -0.9807371497154236 -0.18693287670612335 24.0 41.0 2.0 6.0
1.1967291 -0.13485135 -1.5820271 0.11025138944387436 0.05487435683608055 0.9923877120018005 255.0 0.0 1.0 1.0
1.2076486 -0.12331115 -1.5948431 0.1326364129781723 0.0774969682097435 0.988130509853363 255.0 0.0 1.0 1.0
1.3138765 -0.13858193 -1.5966146 0.11582605540752411 0.017207833006978035 0.9931204319000244 255.0 1.0 1.0 1.0
1.3126682 -0.12454828 -1.5936127 0.11582605540752411 0.017207833006978035 0.9931204319000244 255.0 1.0 1.0 1.0
1.4059697 -0.14014615 -1.5811168 0.11035583168268204 0.09977595508098602 0.9888712167739868 255.0 2.0 1.0 1.0
1.4179116 -0.12637492 -1.5931472 0.11035583168268204 0.09977595508098602 0.9888712167739868 255.0 2.0 1.0 1.0
1.5385116 -0.14542986 -1.6057039 0.10817687958478928 0.08353736251592636 0.9906156659126282 255.0 3.0 1.0 1.0
1.5371368 -0.12905283 -1.6029152 0.10817687958478928 0.08353736251592636 0.9906156659126282 255.0 3.0 1.0 1.0
1.6519164 -0.14907257 -1.6058742 0.24867400527000427 0.05622512102127075 0.9669539928436279 255.0 4.0 1.0 1.0
1.6504728 -0.13151185 -1.6031919 0.2188805192708969 0.04128511995077133 0.9748778939247131 255.0 4.0 1.0 1.0
1.7743684 -0.15351298 -1.6098667 0.16774044930934906 0.041518330574035645 0.9849566221237183 255.0 5.0 1.0 1.0
1.7817355 -0.13536885 -1.6153493 0.12371857464313507 0.1263926923274994 0.9842349886894226 255.0 5.0 1.0 1.0
1.9215682 -0.15984924 -1.6300048 0.09638386964797974 0.02885046787559986 0.9949259757995605 255.0 6.0 1.0 1.0
1.9169955 -0.13924333 -1.6249532 0.12836956977844238 0.01160276960581541 0.9916585087776184 255.0 6.0 1.0 1.0
2.0484054 -0.16462521 -1.6267568 0.10806963592767715 0.027750439941883087 0.9937559962272644 253.0 7.0 1.0 1.0
2.0624638 -0.14404681 -1.63683 0.11618569493293762 0.050445131957530975 0.991945743560791 255.0 7.0 1.0 1.0
2.2008879 -0.17152342 -1.6382829 0.08755901455879211 0.06280718743801117 0.994177520275116 255.0 8.0 1.0 1.0
2.2089114 -0.14889242 -1.6431952 0.17188644409179688 0.08913027495145798 0.9810764193534851 255.0 8.0 1.0 1.0
2.3678744 -0.17880648 -1.6527374 0.12178066372871399 0.006052028387784958 0.992538571357727 255.0 9.0 1.0 1.0
2.3761075 -0.15441953 -1.6574626 0.10840987414121628 0.04283568635582924 0.993182897567749 255.0 9.0 1.0 1.0
2.5367486 -0.18720023 -1.6597503 0.194008007645607 0.015493202954530716 0.9808775782585144 247.0 10.0 1.0 1.0
2.528492 -0.15995556 -1.6533401 0.16634489595890045 -0.025728490203619003 0.9857319593429565 247.0 10.0 1.0 1.0
2.7309766 -0.19640265 -1.67426 0.12491561472415924 0.0041928356513381 0.9921585321426392 238.0 11.0 1.0 1.0
2.7294221 -0.16756038 -1.67234 0.17114987969398499 0.0514318123459816 0.9839017391204834 247.0 11.0 1.0 1.0
2.9312017 -0.20580404 -1.6813717 0.12149238586425781 0.0850759744644165 0.988939642906189 238.0 12.0 1.0 1.0
2.9192853 -0.17423098 -1.6735938 0.08372795581817627 0.006277970504015684 0.9964689016342163 235.0 12.0 1.0 1.0
3.1678665 -0.2181816 -1.6994773 0.13332511484622955 0.03266119584441185 0.9905340075492859 235.0 13.0 1.0 1.0
3.1628814 -0.18455701 -1.6958928 0.04518091678619385 -0.006293658632785082 0.9989590644836426 229.0 13.0 1.0 1.0
3.4107316 -0.23093061 -1.7084013 0.1309971660375595 0.036806076765060425 0.990699291229248 214.0 14.0 1.0 1.0
3.409333 -0.19497366 -1.7068223 0.14047543704509735 0.04800751432776451 0.9889194965362549 217.0 14.0 1.0 1.0
3.7064342 -0.24667737 -1.7300594 0.1344687044620514 0.03727801516652107 0.9902163743972778 199.0 15.0 1.0 1.0
3.7087533 -0.20783167 -1.7302903 0.14099815487861633 -0.007718175183981657 0.9899798631668091 217.0 15.0 1.0 1.0
3.7950356 0.50280243 -1.6651025 0.0804835632443428 -0.004586507100611925 0.9967454075813293 202.0 16.0 1.0 1.0
3.7713549 0.53995734 -1.6573354 0.09400354325771332 -0.009299972094595432 0.9955284595489502 205.0 16.0 1.0 1.0
4.0339823 0.53063017 -1.6398133 -0.053015198558568954 -0.9787044525146484 0.19831016659736633 220.0 17.0 1.0 1.0
4.0648718 0.5780443 -1.6550442 -0.10412465035915375 -0.5399624109268188 0.8352236151695251 220.0 17.0 1.0 1.0
4.0548887 0.52904862 -1.5206801 -0.08122465014457703 -0.9926589727401733 -0.08961401879787445 255.0 18.0 1.0 1.0
4.0490785 0.57149857 -1.5209241 -0.4147554934024811 -0.9055622220039368 -0.0890786275267601 250.0 18.0 1.0 1.0
4.0380912 0.52328122 -1.3911976 -0.15372703969478607 -0.9834169745445251 -0.09622447937726974 255.0 19.0 1.0 1.0
4.0660801 0.57024801 -1.4031136 -0.4545612633228302 -0.8906969428062439 0.005739184562116861 255.0 19.0 1.0 1.0
4.0547786 0.52251661 -1.2768496 -0.08380457758903503 -0.8548311591148376 0.5120943188667297 247.0 20.0 1.0 1.0
4.0528326 0.56548679 -1.2782902 -0.6003430485725403 -0.6267703771591187 0.4967365562915802 226.0 20.0 1.0 1.0
4.4076843 0.56442845 -1.2611104 0.4366903007030487 -0.17294646799564362 0.882831335067749 229.0 21.0 1.0 1.0
4.2338147 0.58747596 -1.2131661 0.5822997689247131 -0.07942526042461395 0.8090850710868835 133.0 21.0 1.0 1.0
4.4934316 0.57207292 -1.1575519 0.18213872611522675 -0.8237943053245544 0.536831796169281 226.0 22.0 1.0 1.0
4.9209399 0.67853004 -1.2701414 -0.5503836870193481 -0.7815712690353394 0.29363951086997986 22.0 22.0 1.0 1.0
4.5337625 0.57467431 -1.0422047 0.03380296379327774 -0.9105661511421204 0.41197898983955383 202.0 23.0 1.0 1.0
4.7824516 0.65691859 -1.1014163 -0.25186121463775635 -0.9096579551696777 -0.33028534054756165 26.0 23.0 1.0 1.0
4.5787611 0.57861686 -0.92761427 -0.19310927391052246 -0.8739783763885498 0.4459492266178131 145.0 24.0 1.0 2.0
4.9687142 0.68045986 -1.0086597 -0.07289163768291473 -0.9747236967086792 -0.21118855476379395 19.0 24.0 2.0 1.0
4.6601586 0.5862444 -0.81795311 -0.7065556049346924 -0.4965508282184601 0.5041987299919128 103.0 25.0 1.0 1.0
4.7552738 0.6487782 -0.83617121 -0.0 -0.7450603246688843 -0.6669970154762268 28.0 25.0 1.0 1.0
4.9626117 0.62212992 -0.73850006 -0.8036207556724548 -0.5951414108276367 0.0006634080782532692 25.0 26.0 1.0 2.0
4.9636669 0.67513186 -0.73997444 0.11699925363063812 -0.9917834401130676 0.05173732712864876 23.0 26.0 1.0 2.0
4.9839058 0.62376666 -0.61078662 -0.5874228477478027 -0.8091393709182739 0.015096789225935936 26.0 27.0 1.0 2.0
4.9889131 0.6775232 -0.61254579 0.08707260340452194 -0.9920305609703064 -0.09106971323490143 24.0 27.0 1.0 2.0
5.0297813 0.62755144 -0.48462209 -0.34365853667259216 -0.8761833310127258 0.33793729543685913 40.0 28.0 1.0 2.0
5.0071664 0.67807084 -0.48338833 0.07878551632165909 -0.9817293286323547 0.17320629954338074 28.0 28.0 1.0 2.0
5.0287061 0.62727994 -0.35358858 -0.07871942222118378 -0.9927040338516235 0.09133443981409073 79.0 29.0 1.0 2.0
5.0258403 0.68044275 -0.35417333 -0.018682945519685745 -0.9982404708862305 0.05627487599849701 19.0 29.0 1.0 2.0
4.9845948 0.62167352 -0.22175528 0.13544431328773499 -0.9904890060424805 -0.024217279627919197 26.0 30.0 1.0 2.0
5.0055661 0.67756963 -0.22331505 0.04111409932374954 -0.9991012215614319 0.010314244776964188 23.0 30.0 1.0 2.0
5.0085478 0.62449205 -0.09426491 0.10636164993047714 -0.9940136671066284 0.024978872388601303 24.0 31.0 1.0 2.0
4.9938464 0.67584366 -0.094410114 0.011303747072815895 -0.9918683767318726 0.1267649531364441 22.0 31.0 1.0 2.0
5.0307202 -0.2948468 0.040743358 0.02040470577776432 -0.998641312122345 0.04795226827263832 37.0 32.0 1.0 2.0
5.0375757 -0.24234445 0.040459465 -0.060023412108421326 -0.9929260611534119 0.1024458035826683 64.0 32.0 1.0 2.0
5.0400715 -0.29640535 0.16945535 -0.06444384157657623 -0.9975907206535339 0.02568715624511242 29.0 33.0 1.0 2.0
5.054934 -0.24419965 0.16953403 -0.05181062966585159 -0.9982061982154846 0.029998738318681717 29.0 33.0 1.0 2.0
5.0342236 -0.2961739 0.29805574 0.04524483531713486 -0.9987931251525879 -0.01910999044775963 27.0 34.0 1.0 2.0
5.0091939 -0.24206813 0.29611552 0.030693933367729187 -0.9983688592910767 -0.04814155027270317 28.0 34.0 1.0 2.0
5.0490179 -0.29628763 0.42864299 -0.0455624982714653 -0.9937756657600403 0.1016567274928093 27.0 35.0 1.0 2.0
5.0598783 -0.2437923 0.42899776 0.025760957971215248 -0.9981456398963928 -0.055151015520095825 28.0 35.0 1.0 2.0
5.0642567 -0.29819283 0.56088644 -0.05415646359324455 -0.9824774861335754 -0.17833921313285828 28.0 36.0 1.0 2.0
5.0790958 -0.24573468 0.56187993 -0.011567500419914722 -0.9952332973480225 -0.09683477133512497 27.0 36.0 1.0 2.0
5.0165491 -0.29631999 0.68708628 -0.05839956924319267 -0.9455602765083313 -0.320164293050766 235.0 37.0 1.0 1.0
5.0115476 -0.24338458 0.68569773 -0.019597234204411507 -0.9675899147987366 -0.25176531076431274 235.0 37.0 1.0 1.0
5.0761509 -0.30176967 0.82842928 0.07813515514135361 -0.9962692260742188 0.03663889691233635 28.0 38.0 1.0 2.0
5.0949035 -0.24938904 0.83067274 0.03062075562775135 -0.9975360631942749 0.06312044709920883 28.0 38.0 1.0 2.0
5.0963326 -0.30486101 0.96723306 0.0040337382815778255 -0.9981553554534912 0.06057719513773918 26.0 39.0 1.0 2.0
5.0797224 -0.25049964 0.96321034 0.08203092962503433 -0.9939699769020081 0.07276462763547897 26.0 39.0 1.0 2.0
5.0267153 -0.30159178 1.0899663 -0.003840161021798849 -0.9845849275588989 -0.17486484348773956 25.0 40.0 1.0 2.0
4.9359846 -0.24422508 1.0694265 -0.08763527125120163 -0.9804806113243103 -0.17600540816783905 22.0 40.0 1.0 0.0
5.1207256 -0.31006703 1.2511535 -0.009105974808335304 -0.9851032495498657 -0.1717229038476944 35.0 41.0 1.0 2.0
5.0927596 -0.25485691 1.2432795 -0.02407638542354107 -0.9856224060058594 -0.16723912954330444 33.0 41.0 1.0 2.0
5.2598915 -0.32143191 1.431114 -0.03195653855800629 -0.9806833863258362 -0.19297398626804352 34.0 42.0 1.0 5.0
5.3055186 -0.26852825 1.4422839 -0.03943107649683952 -0.9818175435066223 -0.18568670749664307 34.0 42.0 1.0 5.0
4.6503382 -0.28695858 1.3989714 -0.10412125289440155 -0.00991717167198658 -0.9945151209831238 148.0 43.0 1.0 1.0
4.6838355 -0.23985349 1.4078571 -0.09665709733963013 -0.06636784970760345 -0.9931026101112366 181.0 43.0 1.0 1.0
4.3234253 -0.26951778 1.426929 -0.1458708941936493 -0.10114426910877228 -0.984119713306427 127.0 44.0 1.0 1.0
4.3527093 -0.22564529 1.435395 -0.14430122077465057 -0.0892852395772934 -0.9854975342750549 163.0 44.0 1.0 1.0
4.0958514 -0.25796124 1.4747329 -0.08787865191698074 -0.9541548490524292 -0.2861219048500061 253.0 45.0 1.0 1.0
4.0984645 -0.21506894 1.4744781 -0.08166077733039856 -0.9451867341995239 -0.3161541819572449 250.0 45.0 1.0 1.0
3.6979129 -0.23569402 1.4444351 -0.2448798567056656 -0.0491160973906517 -0.9683086276054382 34.0 46.0 1.0 1.0
3.8529522 -0.20527546 1.5036047 -0.11456683278083801 -0.17446669936180115 -0.9779753684997559 160.0 46.0 1.0 1.0
3.5102148 -0.22592509 1.4824406 -0.13410741090774536 -0.025313451886177063 -0.9906434416770935 255.0 47.0 1.0 1.0
3.5014784 -0.18855849 1.4775741 -0.14554984867572784 -0.033252060413360596 -0.9887920022010803 244.0 47.0 1.0 1.0
3.4391887 0.46034697 1.5735844 -0.14109990000724792 -0.04161719232797623 -0.9891201853752136 255.0 48.0 1.0 1.0
3.4415376 0.4973565 1.5766745 -0.06148089841008186 -0.04083674028515816 -0.9972724914550781 255.0 48.0 1.0 1.0
3.2265913 0.43623295 1.5869651 -0.11622446030378342 -0.05078102648258209 -0.9919239282608032 255.0 49.0 1.0 1.0
3.2148688 0.46895456 1.5832738 -0.17233476042747498 -0.03315400704741478 -0.9844803810119629 250.0 49.0 1.0 1.0
3.0225317 0.41329691 1.5944591 -0.17886948585510254 -0.023579617962241173 -0.9835902452468872 255.0 50.0 1.0 1.0
3.0357311 0.44747341 1.6035225 -0.13120196759700775 -0.0020031286403536797 -0.9913536906242371 255.0 50.0 1.0 1.0
2.851197 0.3952845 1.6103774 -0.1518043428659439 -0.0809512659907341 -0.9850900173187256 255.0 51.0 1.0 1.0
2.8505013 0.42561707 1.6121554 -0.09826525300741196 -0.06425303220748901 -0.9930837750434875 255.0 51.0 1.0 1.0
2.6810577 0.37636897 1.6188402 -0.10593728721141815 -0.06311246007680893 -0.9923679828643799 255.0 52.0 1.0 1.0
2.6873081 0.40593284 1.6248261 -0.15489400923252106 -0.08356927335262299 -0.984390139579773 255.0 52.0 1.0 1.0
2.5288823 0.36034453 1.6306401 -0.1771610975265503 -0.06068148463964462 -0.9823094010353088 255.0 53.0 1.0 1.0
2.5084362 0.38426703 1.6197463 -0.1556253433227539 -0.06090556085109711 -0.98593670129776 250.0 53.0 1.0 1.0
2.3935728 0.34700489 1.6478964 -0.16116298735141754 -0.06197916343808174 -0.9849796891212463 255.0 54.0 1.0 1.0
2.3932247 0.3725397 1.6500014 -0.13340993225574493 -0.06223873049020767 -0.989104688167572 255.0 54.0 1.0 1.0
2.2490988 0.33172449 1.6527998 -0.1687842309474945 -0.06173011660575867 -0.9837181568145752 255.0 55.0 1.0 1.0
2.2424498 0.3547444 1.6503167 -0.1687842309474945 -0.06173011660575867 -0.9837181568145752 255.0 55.0 1.0 1.0
2.1148701 0.31843716 1.6591897 -0.18404336273670197 -0.07029534876346588 -0.9804012179374695 255.0 56.0 1.0 1.0
2.1178157 0.34154689 1.6639594 -0.0846407413482666 -0.06819263100624084 -0.9940754175186157 253.0 56.0 1.0 1.0
1.999505 0.30797422 1.6757036 -0.12527504563331604 -0.13041497766971588 -0.9835131764411926 255.0 57.0 1.0 1.0
1.9780581 0.32591364 1.6602962 -0.1755274534225464 -0.07167965918779373 -0.9818615317344666 250.0 57.0 1.0 1.0
1.8751495 0.29539886 1.6801916 -0.1553882658481598 -0.006694563198834658 -0.9878307580947876 255.0 58.0 1.0 1.0
1.8543551 0.31206062 1.6641935 -0.20800751447677612 -0.06106153503060341 -0.9762194156646729 247.0 58.0 1.0 1.0
1.7533357 0.28370801 1.6834224 -0.12259716540575027 -0.06255019456148148 -0.9904834032058716 253.0 59.0 1.0 1.0
1.7618791 0.30398729 1.6943107 -0.12469542771577835 -0.06253372132778168 -0.9902225732803345 255.0 59.0 1.0 1.0
1.653702 0.27618802 1.705036 -0.1123853325843811 -0.06168408691883087 -0.9917482733726501 255.0 60.0 1.0 1.0
1.6342756 0.29057053 1.6878436 -0.1123853325843811 -0.06168408691883087 -0.9917482733726501 253.0 60.0 1.0 1.0
1.5366077 0.2658869 1.7060467 -0.12879402935504913 -0.09490987658500671 -0.987119197845459 255.0 61.0 1.0 1.0
1.531231 0.28146791 1.7030056 -0.12879402935504913 -0.09490987658500671 -0.987119197845459 255.0 61.0 1.0 1.0
1.4293085 0.25681436 1.7153137 -0.10616941750049591 -0.007283820305019617 -0.9943214654922485 255.0 62.0 1.0 1.0
1.4292358 0.27222976 1.7182785 -0.12869463860988617 -0.007264307700097561 -0.9916577339172363 255.0 62.0 1.0 1.0
1.3178841 0.24762136 1.718279 -0.07088921219110489 -0.031008495017886162 -0.997002124786377 255.0 63.0 1.0 1.0
1.3153703 0.2613939 1.7182006 -0.08196184784173965 -0.030982110649347305 -0.9961538314819336 255.0 63.0 1.0 1.0
7.4544864 1.0255477 -1.9261403 -0.5699370503425598 -0.8093380331993103 0.14192841947078705 24.0 22.0 2.0 1.0
8.7500286 1.1981773 -2.0185101 -0.25186121463775635 -0.9096579551696777 -0.33028534054756165 19.0 23.0 2.0 1.0
10.37671 1.4161909 -2.1108949 -0.07289163768291473 -0.9747236967086792 -0.21118855476379395 32.0 24.0 2.0 1.0
10.946336 1.3668519 -1.6338512 -0.7963934540748596 -0.6045814752578735 0.015449882484972477 15.0 26.0 2.0 5.0
10.950974 1.4840701 -1.637447 -0.0760764479637146 -0.9957480430603027 0.051944147795438766 17.0 26.0 2.0 5.0
18.00185 2.2413445 -2.2167966 -0.5874228477478027 -0.8091393709182739 0.015096789225935936 14.0 27.0 2.0 6.0
18.032387 2.4371855 -2.2246854 0.08707260340452194 -0.9920305609703064 -0.09106971323490143 18.0 27.0 2.0 6.0
10.893203 1.3535579 -0.77070397 -0.07871942222118378 -0.9927040338516235 0.09133443981409073 9.0 29.0 2.0 5.0
11.051913 -0.6530984 0.084560774 0.01929798163473606 -0.9986631274223328 0.04795331880450249 8.0 32.0 2.0 5.0
11.042218 -0.53654724 0.08376082 -0.060023412108421326 -0.9929260611534119 0.1024458035826683 13.0 32.0 2.0 5.0
11.066109 -0.65614885 0.36711049 -0.06444384157657623 -0.9975907206535339 0.02568715624511242 6.0 33.0 2.0 5.0
11.08442 -0.54082358 0.36681688 0.0053266133181750774 -0.9996166229248047 -0.027169283479452133 11.0 33.0 2.0 5.0
7.3700895 -0.43571463 0.43442458 0.04524483531713486 -0.9987931251525879 -0.01910999044775963 142.0 34.0 2.0 6.0
11.087532 -0.54124278 0.65040392 0.030692044645547867 -0.9983073472976685 0.04939999058842659 4.0 34.0 2.0 5.0
7.3965874 -0.43617311 0.62600791 -0.0455624982714653 -0.9937756657600403 0.1016567274928093 184.0 35.0 2.0 6.0
7.4724951 -0.36221448 0.63156676 0.025760957971215248 -0.9981456398963928 -0.055151015520095825 103.0 35.0 2.0 6.0
7.4377456 -0.44009343 0.82180631 -0.05415646359324455 -0.9824774861335754 -0.17833921313285828 151.0 36.0 2.0 6.0
7.5214696 -0.36610129 0.83006728 -0.011567500419914722 -0.9952332973480225 -0.09683477133512497 79.0 36.0 2.0 6.0
7.4448724 -0.44473037 1.2130544 0.07813515514135361 -0.9962692260742188 0.03663889691233635 112.0 38.0 2.0 6.0
7.4847336 -0.36852407 1.218351 0.03062075562775135 -0.9975360631942749 0.06312044709920883 27.0 38.0 2.0 6.0
6.9482045 -0.4173283 1.3171771 0.0040337382815778255 -0.9981553554534912 0.06057719513773918 42.0 39.0 2.0 5.0
7.4587479 -0.36997417 1.4123588 0.08203092962503433 -0.9939699769020081 0.07276462763547897 16.0 39.0 2.0 6.0
7.5480003 -0.45516881 1.6345655 -0.007261826191097498 -0.9862003326416016 -0.16539722681045532 70.0 40.0 2.0 6.0
7.5642147 -0.37670818 1.6366264 -0.08763527125120163 -0.9804806113243103 -0.17600540816783905 16.0 40.0 2.0 6.0
7.4911122 -0.45573646 1.8283691 -0.009105974808335304 -0.9851032495498657 -0.1717229038476944 24.0 41.0 2.0 6.0
1.2009419 -0.16089265 -1.5914525 0.08592240512371063 0.055006761103868484 0.9947822093963623 255.0 0.0 1.0 1.0
1.1977075 -0.14767995 -1.585158 0.11025138944387436 0.05487435683608055 0.9923877120018005 255.0 0.0 1.0 1.0
1.3133204 -0.16641651 -1.5995551 0.17456039786338806 -0.026723166927695274 0.9842837452888489 255.0 1.0 1.0 1.0
1.2997633 -0.15082441 -1.5811325 0.12482788413763046 0.024150844663381577 0.9918843507766724 255.0 1.0 1.0 1.0
1.4081174 -0.17023771 -1.5869318 0.11357661336660385 0.09795426577329636 0.9886886477470398 255.0 2.0 1.0 1.0
1.4071257 -0.15516469 -1.5840347 0.11357661336660385 0.09795426577329636 0.9886886477470398 253.0 2.0 1.0 1.0
1.5352378 -0.1776427 -1.6055323 0.13245633244514465 0.08329007029533386 0.9876831769943237 255.0 3.0 1.0 1.0
1.5342062 -0.16124032 -1.6027434 0.13245633244514465 0.08329007029533386 0.9876831769943237 255.0 3.0 1.0 1.0
1.6599518 -0.1849629 -1.6168288 0.12069645524024963 0.09762627631425858 0.9878772497177124 255.0 4.0 1.0 1.0
1.6388987 -0.16518804 -1.5946499 0.12069645524024963 0.09762627631425858 0.9878772497177124 247.0 4.0 1.0 1.0
1.7944496 -0.19326383 -1.6311469 0.14657604694366455 0.017997795715928078 0.9890357255935669 255.0 5.0 1.0 1.0
1.7845204 -0.17326894 -1.6205174 0.16775286197662354 0.03969544917345047 0.9850295782089233 255.0 5.0 1.0 1.0
1.9179111 -0.20008713 -1.6297852 0.1482631415128708 0.047931358218193054 0.9877857565879822 255.0 6.0 1.0 1.0
1.9137707 -0.17939022 -1.6247337 0.09638386964797974 0.02885046787559986 0.9949259757995605 255.0 6.0 1.0 1.0
2.0633228 -0.20945895 -1.6414357 0.16691556572914124 0.07420167326927185 0.9831750988960266 255.0 7.0 1.0 1.0
2.062228 -0.18753177 -1.6390783 0.10806963592767715 0.027750439941883087 0.9937559962272644 255.0 7.0 1.0 1.0
2.2065063 -0.21858133 -1.6451889 0.08929324150085449 0.000296833022730425 0.9960053563117981 255.0 8.0 1.0 1.0
2.2118158 -0.19573353 -1.6477134 0.08755901455879211 0.06280718743801117 0.994177520275116 255.0 8.0 1.0 1.0
2.3767855 -0.22968064 -1.6616144 0.18822583556175232 0.029193654656410217 0.981691837310791 255.0 9.0 1.0 1.0
2.369199 -0.20389794 -1.6548975 0.16015897691249847 0.006018700543791056 0.9870728254318237 255.0 9.0 1.0 1.0
2.539052 -0.24096997 -1.6638318 0.13570453226566315 0.06588725000619888 0.9885561466217041 250.0 10.0 1.0 1.0
2.5413795 -0.21434957 -1.6639898 0.08608921617269516 0.01573464274406433 0.9961631894111633 247.0 10.0 1.0 1.0
2.7331719 -0.25423971 -1.6781187 0.12537942826747894 0.006924463901668787 0.9920846819877625 241.0 11.0 1.0 1.0
2.7220328 -0.22444302 -1.669929 0.11813053488731384 0.011067348532378674 0.9929364323616028 238.0 11.0 1.0 1.0
2.9367321 -0.26815459 -1.6869946 0.09862243384122849 0.04857959598302841 0.9939384460449219 232.0 12.0 1.0 1.0
2.925488 -0.23623054 -1.6792181 0.08528552204370499 0.04863971471786499 0.9951685667037964 232.0 12.0 1.0 1.0
3.1732531 -0.28549004 -1.7047732 0.1379120796918869 0.04666316881775856 0.989344596862793 235.0 13.0 1.0 1.0
3.1654692 -0.25137377 -1.6992986 0.13779877126216888 0.06177881360054016 0.9885317087173462 226.0 13.0 1.0 1.0
3.4123917 -0.30300632 -1.7115775 0.1030617356300354 0.025106102228164673 0.9943580627441406 208.0 14.0 1.0 1.0
3.4260144 -0.26808742 -1.7171628 0.14131727814674377 0.0523480661213398 0.9885793924331665 220.0 14.0 1.0 1.0
3.7258518 -0.32654974 -1.741457 0.13997162878513336 0.013413543812930584 0.9900646805763245 205.0 15.0 1.0 1.0
3.7326195 -0.28777903 -1.7433801 0.09917982667684555 0.021607767790555954 0.9948349595069885 226.0 15.0 1.0 1.0
3.8267283 0.42555872 -1.6742251 0.1275947540998459 0.07604841142892838 0.9889065027236938 202.0 16.0 1.0 1.0
3.8038044 0.46343026 -1.6664616 0.15414759516716003 0.03808676451444626 0.9873135089874268 205.0 16.0 1.0 1.0
4.0443349 0.44596443 -1.6393148 0.0867191031575203 -0.996232807636261 0.0002493966603651643 235.0 17.0 1.0 1.0
4.0136108 0.48522156 -1.6290692 0.09747862815856934 -0.9950236082077026 0.020639212802052498 217.0 17.0 1.0 1.0
4.0428305 0.44152617 -1.511796 0.03433116525411606 -0.9965081810951233 -0.07611031085252762 255.0 18.0 1.0 1.0
4.045382 0.48473841 -1.5148333 0.05224762484431267 -0.9951978325843811 -0.08277249336242676 255.0 18.0 1.0 1.0
4.0332069 0.43691295 -1.3855134 0.022261179983615875 -0.9991462230682373 -0.03480324521660805 255.0 19.0 1.0 1.0
4.0358872 0.48002529 -1.3883487 0.01862708106637001 -0.9977993369102478 -0.0636366754770279 255.0 19.0 1.0 1.0
4.0611153 0.43700698 -1.2751532 0.08027421683073044 -0.8459664583206177 0.5271593332290649 238.0 20.0 1.0 1.0
