ply
format ascii 1.0
element vertex 416
property float x
property float y
property float z
property float nx
property float ny
property float nz
property float intensity
property float ring
property float return
property float label
end_header
-0.66932428 -0.11044137 -0.61446917 0.1144527941942215 0.0406467579305172 0.9925967454910278 241.0 5.0 1.0 1.0
-0.68272626 -0.1200274 -0.62789226 0.1144527941942215 0.0406467579305172 0.9925967454910278 244.0 5.0 1.0 1.0
-0.73087585 -0.12299625 -0.6277681 0.16901399195194244 0.005052186083048582 0.9856007099151611 247.0 6.0 1.0 1.0
-0.71451968 -0.12795117 -0.61484367 0.1481180489063263 -0.010842248797416687 0.9889103174209595 241.0 6.0 1.0 1.0
-0.78099453 -0.13356216 -0.62841094 0.16342589259147644 0.06801145523786545 0.9842085242271423 255.0 7.0 1.0 1.0
-0.77338094 -0.14061615 -0.62344003 0.16342589259147644 0.06801145523786545 0.9842085242271423 253.0 7.0 1.0 1.0
-0.79646295 -0.13807566 -0.60099041 0.16203220188617706 0.08898918330669403 0.9827646613121033 250.0 8.0 1.0 1.0
-0.81075275 -0.14933106 -0.6129207 0.16203220188617706 0.08898918330669403 0.9827646613121033 253.0 8.0 1.0 1.0
-0.85904378 -0.15096524 -0.60811436 0.1282287836074829 0.02847607247531414 0.9913357496261597 255.0 9.0 1.0 1.0
-0.86708713 -0.16176978 -0.61497581 0.22397446632385254 0.01559978723526001 0.9744701981544495 255.0 9.0 1.0 1.0
-0.9225024 -0.16364077 -0.61235309 0.2227347046136856 -0.09061125665903091 0.9706589579582214 255.0 10.0 1.0 1.0
-0.92402339 -0.17391995 -0.61454046 0.1432441622018814 -0.05827350541949272 0.9879702925682068 255.0 10.0 1.0 1.0
-0.97980738 -0.17559482 -0.60963678 0.4153791069984436 0.9039561748504639 0.10160428285598755 255.0 11.0 1.0 1.0
-0.99131346 -0.18840618 -0.61799175 0.4153791069984436 0.9039561748504639 0.10160428285598755 255.0 11.0 1.0 1.0
-1.0136698 -0.1833203 -0.59031034 0.006551400292664766 0.7025893330574036 0.7115654349327087 255.0 12.0 1.0 1.0
-1.0116894 -0.19393224 -0.5903095 0.006551400292664766 0.7025893330574036 0.7115654349327087 255.0 12.0 1.0 1.0
-1.0121729 -0.18432415 -0.55139494 0.02545640431344509 0.9979653358459473 0.05845584720373154 255.0 13.0 1.0 1.0
-1.0136436 -0.19558957 -0.55328357 0.02545640431344509 0.9979653358459473 0.05845584720373154 255.0 13.0 1.0 1.0
-0.98807973 -0.18099365 -0.50265414 0.02546856552362442 0.9984419345855713 -0.04964767396450043 255.0 14.0 1.0 1.0
-0.9966591 -0.19338588 -0.5080232 0.02546856552362442 0.9984419345855713 -0.04964767396450043 255.0 14.0 1.0 1.0
-0.98335165 -0.18118808 -0.4662416 0.007789876312017441 0.9987956285476685 -0.04844037443399429 255.0 15.0 1.0 1.0
-0.98851085 -0.19287373 -0.46962175 0.007789876312017441 0.9987956285476685 -0.04844037443399429 255.0 15.0 1.0 1.0
-0.97710901 -0.39060587 -0.45690018 0.013576198369264603 0.9991589188575745 -0.038692545145750046 255.0 16.0 1.0 1.0
-0.96956784 -0.39942488 -0.45530573 0.012727762572467327 0.9992343187332153 -0.036996543407440186 255.0 16.0 1.0 1.0
-0.98870504 -0.39403933 -0.42810094 0.00987427681684494 0.9999265670776367 -0.00702389283105731 255.0 17.0 1.0 1.0
-0.99481654 -0.40861037 -0.43257806 0.013584953732788563 0.9998033046722412 -0.01444681640714407 255.0 17.0 1.0 1.0
-0.98217702 -0.39004049 -0.3921575 0.009869733825325966 0.9994664788246155 -0.031134264543652534 255.0 18.0 1.0 1.0
-0.99191439 -0.4059965 -0.39772344 0.009869733825325966 0.9994664788246155 -0.031134264543652534 255.0 18.0 1.0 1.0
-1.0025622 -0.39692196 -0.36757994 0.017166899517178535 0.9980801343917847 -0.0595095120370388 255.0 19.0 1.0 1.0
-1.0053554 -0.41026804 -0.37016046 0.0018599580507725477 0.9989567995071411 -0.04562736302614212 255.0 19.0 1.0 1.0
-0.97965807 -0.38685396 -0.32815558 0.004549204371869564 0.999754786491394 -0.02166990377008915 255.0 20.0 1.0 1.0
-0.96493798 -0.39277595 -0.32458383 0.017166899517178535 0.9980801343917847 -0.0595095120370388 255.0 20.0 1.0 1.0
-0.96619678 -0.38055474 -0.29384133 0.017938628792762756 0.9979613423347473 -0.06124978885054588 255.0 21.0 1.0 1.0
-0.97641581 -0.39645389 -0.29819822 0.004547252785414457 0.9993260502815247 -0.03642516955733299 255.0 21.0 1.0 1.0
-0.98061901 -0.38524696 -0.26834974 0.0019251098856329918 0.9999374151229858 -0.01102468091994524 255.0 22.0 1.0 1.0
-0.97293329 -0.39404556 -0.26736069 0.0019251098856329918 0.9999374151229858 -0.01102468091994524 255.0 22.0 1.0 1.0
-0.97252947 -0.38127869 -0.2373343 0.009748379699885845 0.9989348649978638 -0.04510243237018585 255.0 23.0 1.0 1.0
-0.97570968 -0.39437377 -0.23910667 0.001924080541357398 0.9994027614593506 -0.034503888338804245 255.0 23.0 1.0 1.0
-0.96352077 -0.37715811 -0.20707726 0.00786654930561781 0.9988932609558105 -0.04637319594621658 255.0 24.0 1.0 1.0
-0.95223975 -0.38429585 -0.20550475 0.00786654930561781 0.9988932609558105 -0.04637319594621658 255.0 24.0 1.0 1.0
-0.96479994 -0.37687856 -0.17947245 0.0033045043237507343 0.9987753629684448 -0.04936512932181358 255.0 25.0 1.0 1.0
-0.9607951 -0.38696721 -0.17947121 0.0033045043237507343 0.9987753629684448 -0.04936512932181358 255.0 25.0 1.0 1.0
-0.96163452 -0.37505692 -0.15144195 0.007690973114222288 0.9999333024024963 -0.008624215610325336 255.0 26.0 1.0 1.0
-0.97233421 -0.39102259 -0.15376674 0.007690973114222288 0.9999333024024963 -0.008624215610325336 255.0 26.0 1.0 1.0
-0.94657046 -0.36879268 -0.12256631 0.018846159800887108 0.9958351254463196 -0.0892033576965332 255.0 27.0 1.0 1.0
-0.95002019 -0.38165337 -0.12352523 0.018846159800887108 0.9958351254463196 -0.0892033576965332 255.0 27.0 1.0 1.0
-0.971659 -0.37798566 -0.098678455 0.021071141585707664 0.9983154535293579 -0.054058123379945755 255.0 28.0 1.0 1.0
-0.95286036 -0.38221201 -0.097165614 0.021071141585707664 0.9983154535293579 -0.054058123379945755 255.0 28.0 1.0 1.0
-0.94774121 -0.36848006 -0.069951899 0.017604736611247063 0.9989922642707825 -0.041286345571279526 255.0 29.0 1.0 1.0
-0.95123231 -0.38136226 -0.070501924 -0.016087878495454788 0.9975342750549316 -0.06831256300210953 255.0 29.0 1.0 1.0
-0.95661896 -0.37173891 -0.044296209 0.007920830510556698 0.99945068359375 -0.032182224094867706 255.0 30.0 1.0 1.0
-0.9600867 -0.38471678 -0.044642281 0.007920830510556698 0.99945068359375 -0.032182224094867706 255.0 30.0 1.0 1.0
-0.94625062 -0.36751306 -0.017934129 0.025595832616090775 0.9973911046981812 -0.06749854236841202 255.0 31.0 1.0 1.0
-0.93492037 -0.37443179 -0.017789103 -0.017031151801347733 0.9974177479743958 -0.06976988166570663 255.0 31.0 1.0 1.0
-0.95427513 -0.18112776 0.00781048 0.039411574602127075 0.9956579804420471 -0.0843319445848465 255.0 32.0 1.0 1.0
-0.95624197 -0.19190516 0.0078420714 0.039411574602127075 0.9956579804420471 -0.0843319445848465 255.0 32.0 1.0 1.0
-0.93027657 -0.17622352 0.031760305 0.056151002645492554 0.9942689538002014 -0.09097471833229065 255.0 33.0 1.0 1.0
-0.94013351 -0.1883218 0.032158934 0.031047562137246132 0.9977651238441467 -0.059168145060539246 255.0 33.0 1.0 1.0
-0.89391041 -0.16915473 0.053781103 0.043943293392658234 0.9981499314308167 -0.04202236980199814 255.0 34.0 1.0 1.0
-0.93515122 -0.18714964 0.05636058 0.043943293392658234 0.9981499314308167 -0.04202236980199814 255.0 34.0 1.0 1.0
-0.97059995 -0.18370025 0.083716996 0.043880999088287354 0.9967349171638489 -0.06777789443731308 255.0 35.0 1.0 1.0
-0.93735349 -0.18758924 0.081027962 0.043880999088287354 0.9967349171638489 -0.06777789443731308 255.0 35.0 1.0 1.0
-0.92528057 -0.17476667 0.10414345 0.04352215677499771 0.9967993497848511 -0.06705891340970993 255.0 36.0 1.0 1.0
-0.91559702 -0.18289103 0.10326818 0.04352215677499771 0.9967993497848511 -0.06705891340970993 255.0 36.0 1.0 1.0
-0.92240739 -0.17388698 0.12838091 0.02621505595743656 0.9996092915534973 -0.009696867316961288 255.0 37.0 1.0 1.0
-0.9244169 -0.18431886 0.12892199 0.02621505595743656 0.9996092915534973 -0.009696867316961288 255.0 37.0 1.0 1.0
-0.93837208 -0.17639211 0.15561093 0.027704160660505295 0.9986542463302612 -0.04384124279022217 255.0 38.0 1.0 1.0
-0.90549147 -0.18004158 0.15047853 0.027704160660505295 0.9986542463302612 -0.04384124279022217 255.0 38.0 1.0 1.0
-0.90332329 -0.16929621 0.1742093 0.0456680953502655 0.9952210187911987 -0.08631031960248947 255.0 39.0 1.0 1.0
-0.94390005 -0.18717964 0.18238381 0.027696045115590096 0.9983617663383484 -0.0500677116215229 255.0 39.0 1.0 1.0
-0.92555016 -0.17313536 0.20389801 0.0458386205136776 0.99893718957901 -0.004819869063794613 255.0 40.0 1.0 1.0
-0.91217554 -0.18054147 0.20136476 0.0458386205136776 0.99893718957901 -0.004819869063794613 255.0 40.0 1.0 1.0
-0.91631919 -0.17073986 0.22744933 0.058757513761520386 0.9977983236312866 -0.03075668215751648 255.0 41.0 1.0 1.0
-0.91066271 -0.17957816 0.22650377 0.058757513761520386 0.9977983236312866 -0.03075668215751648 255.0 41.0 1.0 1.0
-0.89894104 -0.16684201 0.24846905 0.05381780117750168 0.9982450604438782 -0.024707378819584846 255.0 42.0 1.0 1.0
-0.91607797 -0.17998149 0.25370479 0.05381780117750168 0.9982450604438782 -0.024707378819584846 255.0 42.0 1.0 1.0
-0.94507158 -0.1745694 0.28863719 0.05371164530515671 0.9962760806083679 -0.06744686514139175 255.0 43.0 1.0 1.0
-0.90934616 -0.17782861 0.27830032 0.05371164530515671 0.9962760806083679 -0.06744686514139175 255.0 43.0 1.0 1.0
-0.89254934 -0.16403645 0.29898429 0.03478926792740822 0.9989593625068665 -0.02949444018304348 255.0 44.0 1.0 1.0
-0.92434245 -0.17992783 0.31023139 0.03478926792740822 0.9989593625068665 -0.02949444018304348 255.0 44.0 1.0 1.0
-0.90674567 -0.16583149 0.33124551 0.03439034894108772 0.999349057674408 -0.010893098078668118 255.0 45.0 1.0 1.0
-0.88647377 -0.17173401 0.3244929 0.03439034894108772 0.999349057674408 -0.010893098078668118 255.0 45.0 1.0 1.0
-0.91626513 -0.16658251 0.36294544 0.026903776451945305 0.998901903629303 -0.03835810348391533 255.0 46.0 1.0 1.0
-0.88152355 -0.16981222 0.34989205 0.026903776451945305 0.998901903629303 -0.03835810348391533 255.0 46.0 1.0 1.0
-0.90639788 -0.16396418 0.38808537 0.026842433959245682 0.996624231338501 -0.07758690416812897 255.0 47.0 1.0 1.0
-0.87203848 -0.16718861 0.37412697 0.026842433959245682 0.996624231338501 -0.07758690416812897 255.0 47.0 1.0 1.0
-0.87657523 -0.34637901 0.42878351 0.02623068168759346 0.9959326386451721 -0.0861983373761177 247.0 48.0 1.0 1.0
-0.86952186 -0.3541694 0.42713037 0.02623068168759346 0.9959326386451721 -0.0861983373761177 244.0 48.0 1.0 1.0
-0.87819737 -0.34808102 0.46179339 0.026227647438645363 0.9958174228668213 -0.08751942217350006 247.0 49.0 1.0 1.0
-0.88448036 -0.36134425 0.46705833 0.026227647438645363 0.9958174228668213 -0.08751942217350006 255.0 49.0 1.0 1.0
-0.86868817 -0.34553418 0.48999527 0.020801488310098648 0.9976879954338074 -0.06469997763633728 247.0 50.0 1.0 1.0
-0.86829525 -0.35596189 0.49185115 0.02385496161878109 0.9956725239753723 -0.08981727063655853 244.0 50.0 1.0 1.0
-0.85810119 -0.34287843 0.51836562 0.03615244850516319 0.9904671311378479 -0.13292044401168823 226.0 51.0 1.0 1.0
-0.86091095 -0.35450959 0.5222764 0.023871328681707382 0.9956750869750977 -0.0897848829627037 232.0 51.0 1.0 1.0
-0.84023094 -0.33708966 0.54274064 0.06823916733264923 0.9925245642662048 -0.10118494927883148 214.0 52.0 1.0 1.0
-0.85567689 -0.35374761 0.55506915 0.06526532024145126 0.9928885698318481 -0.0995628610253334 235.0 52.0 1.0 1.0
-0.83708268 -0.33751947 0.577609 0.056987371295690536 0.9945544004440308 -0.08725739270448685 226.0 53.0 1.0 1.0
-0.84283316 -0.35015374 0.58407217 0.06526532024145126 0.9928885698318481 -0.0995628610253334 229.0 53.0 1.0 1.0
-0.84753782 -0.34380123 0.62468559 0.0516897477209568 0.9930838942527771 -0.1054157167673111 229.0 54.0 1.0 1.0
-0.84693414 -0.35393709 0.62694067 0.05685502663254738 0.9922446012496948 -0.11053558439016342 235.0 54.0 1.0 1.0
-0.82878077 -0.33820543 0.65233207 0.02105209045112133 0.9971638321876526 -0.07225731760263443 217.0 55.0 1.0 1.0
-0.83711231 -0.3518866 0.66174829 0.05170443654060364 0.9933661222457886 -0.1027146503329277 229.0 55.0 1.0 1.0
-0.81453073 -0.33487195 0.68485862 0.02104552648961544 0.996852695941925 -0.07643269002437592 211.0 56.0 1.0 1.0
-0.84006107 -0.35571447 0.70939475 0.02104552648961544 0.996852695941925 -0.07643269002437592 229.0 56.0 1.0 1.0
-0.82987726 -0.34406522 0.74587882 0.03213357925415039 0.9975472092628479 -0.06218530237674713 226.0 57.0 1.0 1.0
-0.81772858 -0.34911144 0.73822021 0.03213357925415039 0.9975472092628479 -0.06218530237674713 217.0 57.0 1.0 1.0
-0.82242674 -0.34383243 0.79087585 0.03599975258111954 0.9985955357551575 -0.03887020796537399 220.0 58.0 1.0 1.0
-0.81602585 -0.35124558 0.7882241 0.03599975258111954 0.9985955357551575 -0.03887020796537399 217.0 58.0 1.0 1.0
-0.81990874 -0.34631047 0.84561598 0.028897935524582863 0.9986134171485901 -0.04400169849395752 226.0 59.0 1.0 1.0
-0.82155269 -0.35719672 0.85112381 0.028897935524582863 0.9986134171485901 -0.04400169849395752 229.0 59.0 1.0 1.0
-0.80588889 -0.34469694 0.89361304 0.01476739440113306 0.9994829893112183 -0.028560154139995575 238.0 60.0 1.0 1.0
-0.80479413 -0.35425085 0.8964681 0.01476739440113306 0.9994829893112183 -0.028560154139995575 229.0 60.0 1.0 1.0
-0.81567615 -0.3539452 0.97526497 0.014342660084366798 0.9994645714759827 -0.02940855175256729 253.0 61.0 1.0 1.0
-0.80453295 -0.35917115 0.96640307 0.014342660084366798 0.9994645714759827 -0.02940855175256729 241.0 61.0 1.0 1.0
-0.80742288 -0.35589474 1.0450988 0.007832988165318966 0.9994540810585022 -0.032095249742269516 255.0 62.0 1.0 1.0
-0.81070036 -0.36753482 1.0542644 0.007832988165318966 0.9994540810585022 -0.032095249742269516 255.0 62.0 1.0 1.0
-0.80652809 -0.36240789 1.1363221 -0.0023400739300996065 0.9992088079452515 -0.03970147296786308 255.0 63.0 1.0 1.0
-0.804914 -0.37186912 1.1394788 -0.0023400739300996065 0.9992088079452515 -0.03970147296786308 255.0 63.0 1.0 1.0
-0.48423898 -0.062407535 -0.64299715 0.19524312019348145 0.002624735003337264 0.9807513952255249 250.0 0.0 1.0 1.0
-0.48487112 -0.057326004 -0.64299744 0.19524312019348145 0.002624735003337264 0.9807513952255249 238.0 0.0 1.0 1.0
-0.52694863 -0.071602874 -0.6442042 0.1846020370721817 0.061721060425043106 0.9808734059333801 247.0 1.0 1.0 1.0
-0.51756483 -0.0647991 -0.63186896 0.19775179028511047 0.06638163328170776 0.9780018925666809 238.0 1.0 1.0 1.0
-0.56095558 -0.079346955 -0.6354534 0.18960453569889069 -0.021057764068245888 0.9816346764564514 244.0 2.0 1.0 1.0
-0.55912089 -0.073113561 -0.63246894 0.18960453569889069 -0.021057764068245888 0.9816346764564514 241.0 2.0 1.0 1.0
-0.59988356 -0.087876692 -0.63135368 0.22933164238929749 -0.00985352136194706 0.9732984900474548 241.0 3.0 1.0 1.0
-0.59528434 -0.080833003 -0.62558532 0.22933164238929749 -0.00985352136194706 0.9732984900474548 226.0 3.0 1.0 1.0
-0.63539386 -0.095711656 -0.62345898 0.21110954880714417 -0.09593656659126282 0.972743034362793 235.0 4.0 1.0 1.0
-0.63067949 -0.088245817 -0.61788982 0.21110954880714417 -0.09593656659126282 0.972743034362793 232.0 4.0 1.0 1.0
-0.67631918 -0.10431968 -0.61984199 0.20197732746601105 0.04007237032055855 0.9785701632499695 244.0 5.0 1.0 1.0
-0.67151004 -0.09637823 -0.6144731 0.20197732746601105 0.04007237032055855 0.9785701632499695 238.0 5.0 1.0 1.0
-0.71706229 -0.11293741 -0.61484766 0.16901399195194244 0.005052186083048582 0.9856007099151611 238.0 6.0 1.0 1.0
-0.71519071 -0.10496968 -0.61226338 0.17187604308128357 0.005049648229032755 0.9851056337356567 235.0 6.0 1.0 1.0
-0.76070309 -0.12187789 -0.6110183 0.16866958141326904 0.06400573253631592 0.9835923314094543 244.0 7.0 1.0 1.0
-0.75884318 -0.11343301 -0.60853368 0.16866958141326904 0.06400573253631592 0.9835923314094543 247.0 7.0 1.0 1.0
-0.82639605 -0.13436271 -0.6224696 0.12809023261070251 0.05448979139328003 0.9902645349502563 255.0 8.0 1.0 1.0
-0.81824183 -0.12424358 -0.61531162 0.12809023261070251 0.05448979139328003 0.9902645349502563 255.0 8.0 1.0 1.0
-0.88001722 -0.14515808 -0.62184215 0.12382856011390686 0.024007676169276237 0.9920132160186768 255.0 9.0 1.0 1.0
-0.8490656 -0.13091077 -0.59896886 0.12382856011390686 0.024007676169276237 0.9920132160186768 247.0 9.0 1.0 1.0
-0.93078601 -0.15505736 -0.6167329 0.1764581799507141 -0.09148763865232468 0.9800472259521484 255.0 10.0 1.0 1.0
-0.9191308 -0.14322644 -0.60798091 0.1764581799507141 -0.09148763865232468 0.9800472259521484 255.0 10.0 1.0 1.0
-0.97488064 -0.16417067 -0.60546237 0.006551400292664766 0.7025893330574036 0.7115654349327087 255.0 11.0 1.0 1.0
-0.9832902 -0.15501109 -0.60964096 0.006551400292664766 0.7025893330574036 0.7115654349327087 255.0 11.0 1.0 1.0
-1.0052857 -0.17092666 -0.58434772 0.006551400292664766 0.7025893330574036 0.7115654349327087 255.0 12.0 1.0 1.0
-1.01388 -0.16147767 -0.58832586 0.006551400292664766 0.7025893330574036 0.7115654349327087 255.0 12.0 1.0 1.0
-1.0071137 -0.17250259 -0.54761946 0.02545640431344509 0.9979653358459473 0.05845584720373154 255.0 13.0 1.0 1.0
-0.99494684 -0.15969907 -0.54006237 0.009323777630925179 0.9999063014984131 0.010023081675171852 255.0 13.0 1.0 1.0
-0.99346119 -0.17122807 -0.50444758 0.008574305102229118 0.9999626278877258 0.0010758230928331614 255.0 14.0 1.0 1.0
-0.99520504 -0.160808 -0.50444835 0.008574305102229118 0.9999626278877258 0.0010758230928331614 255.0 14.0 1.0 1.0
-0.98163879 -0.17024231 -0.46455461 0.00459671625867486 0.9989649057388306 -0.04525410383939743 255.0 15.0 1.0 1.0
-0.98337299 -0.15994619 -0.46455535 0.00459671625867486 0.9989649057388306 -0.04525410383939743 255.0 15.0 1.0 1.0
-0.99142605 -0.38431615 -0.46168453 0.013576198369264603 0.9991589188575745 -0.038692545145750046 255.0 16.0 1.0 1.0
-1.0091389 -0.37907025 -0.46805838 0.013576198369264603 0.9991589188575745 -0.038692545145750046 255.0 16.0 1.0 1.0
-0.99625665 -0.38498554 -0.42959869 0.00987427681684494 0.9999265670776367 -0.00702389283105731 255.0 17.0 1.0 1.0
-0.97243881 -0.36410671 -0.41765746 0.00987427681684494 0.9999265670776367 -0.00702389283105731 255.0 17.0 1.0 1.0
-0.97922748 -0.37701988 -0.38937876 0.0018616841407492757 0.9998838901519775 -0.01512292493134737 255.0 18.0 1.0 1.0
-0.99015337 -0.36936155 -0.3921636 0.0018616841407492757 0.9998838901519775 -0.01512292493134737 255.0 18.0 1.0 1.0
-1.006682 -0.38638401 -0.36758485 0.017166899517178535 0.9980801343917847 -0.0595095120370388 255.0 19.0 1.0 1.0
-0.9716478 -0.36128935 -0.35338584 0.017166899517178535 0.9980801343917847 -0.0595095120370388 255.0 19.0 1.0 1.0
-0.98367357 -0.37655702 -0.32816046 0.004547252785414457 0.9993260502815247 -0.03642516955733299 255.0 20.0 1.0 1.0
-0.98040771 -0.36357144 -0.32578132 0.004547252785414457 0.9993260502815247 -0.03642516955733299 255.0 20.0 1.0 1.0
-0.96655154 -0.36902627 -0.29275668 0.017938628792762756 0.9979613423347473 -0.06124978885054588 255.0 21.0 1.0 1.0
-0.97397751 -0.36021411 -0.29384738 0.015668444335460663 0.997999370098114 -0.06125212460756302 255.0 21.0 1.0 1.0
-0.97012943 -0.36941952 -0.26440337 0.0019251098856329918 0.9999374151229858 -0.01102468091994524 255.0 22.0 1.0 1.0
-0.97395003 -0.35923389 -0.26440457 -0.002375092590227723 0.9999364018440247 -0.01102467067539692 255.0 22.0 1.0 1.0
-0.96919519 -0.36828494 -0.23556551 0.009748379699885845 0.9989348649978638 -0.04510243237018585 255.0 23.0 1.0 1.0
-0.96568394 -0.35541281 -0.23379305 0.009748379699885845 0.9989348649978638 -0.04510243237018585 255.0 23.0 1.0 1.0
-0.9564352 -0.36285552 -0.20472516 0.00786654930561781 0.9988932609558105 -0.04637319594621658 255.0 24.0 1.0 1.0
-0.96018791 -0.35281333 -0.20472631 -0.009140570648014545 0.9988823533058167 -0.04637269303202629 255.0 24.0 1.0 1.0
-0.96871138 -0.36673948 -0.17947727 0.0033045043237507343 0.9987753629684448 -0.04936512932181358 255.0 25.0 1.0 1.0
-0.9651044 -0.35385311 -0.17811109 0.007676246110349894 0.9980185627937317 -0.06245045363903046 255.0 25.0 1.0 1.0
-0.98403442 -0.37195265 -0.15435435 0.007690973114222288 0.9999333024024963 -0.008624215610325336 255.0 26.0 1.0 1.0
-0.95072126 -0.34800676 -0.14854033 0.007690973114222288 0.9999333024024963 -0.008624215610325336 255.0 26.0 1.0 1.0
-0.95782739 -0.36165315 -0.12353127 0.018846159800887108 0.9958351254463196 -0.0892033576965332 255.0 27.0 1.0 1.0
-0.9578383 -0.3502318 -0.12305234 0.018846159800887108 0.9958351254463196 -0.0892033576965332 255.0 27.0 1.0 1.0
-0.95695281 -0.36074668 -0.096793734 0.017604736611247063 0.9989922642707825 -0.041286345571279526 255.0 28.0 1.0 1.0
-0.95320296 -0.34796616 -0.096039064 0.017604736611247063 0.9989922642707825 -0.041286345571279526 255.0 28.0 1.0 1.0
-0.9552992 -0.35992914 -0.070232324 0.017604736611247063 0.9989922642707825 -0.041286345571279526 255.0 29.0 1.0 1.0
-0.95152467 -0.34716165 -0.069682203 0.017604736611247063 0.9989922642707825 -0.041286345571279526 255.0 29.0 1.0 1.0
-0.94925851 -0.35745832 -0.043780047 0.007920830510556698 0.99945068359375 -0.032182224094867706 255.0 30.0 1.0 1.0
-0.96046311 -0.35023263 -0.044128507 0.007920830510556698 0.99945068359375 -0.032182224094867706 255.0 30.0 1.0 1.0
-0.93883693 -0.3533403 -0.017723164 0.025595832616090775 0.9973911046981812 -0.06749854236841202 255.0 31.0 1.0 1.0
-0.95000529 -0.34622484 -0.017868139 0.025595832616090775 0.9973911046981812 -0.06749854236841202 255.0 31.0 1.0 1.0
-0.95613426 -0.17111064 0.0078069745 0.056151002645492554 0.9942689538002014 -0.09097471833229065 255.0 32.0 1.0 1.0
-0.95787913 -0.16108304 0.0078062359 0.024216357618570328 0.9955480098724365 -0.09109175205230713 255.0 32.0 1.0 1.0
-0.95176172 -0.16998124 0.032419845 0.056151002645492554 0.9942689538002014 -0.09097471833229065 255.0 33.0 1.0 1.0
-0.90618622 -0.15203997 0.030827843 0.024216357618570328 0.9955480098724365 -0.09109175205230713 255.0 33.0 1.0 1.0
-0.93888545 -0.16750488 0.056356281 0.043943293392658234 0.9981499314308167 -0.04202236980199814 255.0 34.0 1.0 1.0
-0.94059348 -0.15765822 0.056355562 0.013936764560639858 0.9990179538726807 -0.04205891489982605 255.0 34.0 1.0 1.0
-0.92932576 -0.16579325 0.080014974 0.04352215677499771 0.9967993497848511 -0.06705891340970993 255.0 35.0 1.0 1.0
-0.94673926 -0.15868928 0.081359163 0.025358861312270164 0.9974239468574524 -0.06710093468427658 255.0 35.0 1.0 1.0
-0.93098861 -0.16575326 0.10457797 0.04352215677499771 0.9967993497848511 -0.06705891340970993 255.0 36.0 1.0 1.0
-0.92483634 -0.15467429 0.10370122 0.025358861312270164 0.9974239468574524 -0.06710093468427658 255.0 36.0 1.0 1.0
-0.93199605 -0.16559537 0.12945798 0.02621505595743656 0.9996092915534973 -0.009696867316961288 255.0 37.0 1.0 1.0
-0.93368447 -0.15582108 0.12945727 0.023094017058610916 0.9996861815452576 -0.00969761423766613 255.0 37.0 1.0 1.0
-0.92074531 -0.16309182 0.15239921 0.027704160660505295 0.9986542463302612 -0.04384124279022217 255.0 38.0 1.0 1.0
-0.910725 -0.1514868 0.15047356 0.027704160660505295 0.9986542463302612 -0.04384124279022217 255.0 38.0 1.0 1.0
-0.92054158 -0.16255637 0.17717807 0.0456680953502655 0.9952210187911987 -0.08631031960248947 255.0 39.0 1.0 1.0
-0.91444451 -0.15161307 0.17569123 0.03159015625715256 0.9957632422447205 -0.08635734766721725 255.0 39.0 1.0 1.0
-0.90807593 -0.16002047 0.19967116 0.058757513761520386 0.9977983236312866 -0.03075668215751648 255.0 40.0 1.0 1.0
-0.89427894 -0.14793755 0.19629179 0.00916990265250206 0.9994832873344421 -0.030808620154857635 255.0 40.0 1.0 1.0
-0.90276057 -0.15842928 0.22366054 0.058757513761520386 0.9977983236312866 -0.03075668215751648 255.0 41.0 1.0 1.0
-0.92354804 -0.1521287 0.22839147 0.00916990265250206 0.9994832873344421 -0.030808620154857635 255.0 41.0 1.0 1.0
-0.93487644 -0.16340524 0.25788853 0.05381780117750168 0.9982450604438782 -0.024707378819584846 255.0 42.0 1.0 1.0
-0.91368556 -0.1498422 0.25160587 0.037163663655519485 0.9990032315254211 -0.0247261431068182 255.0 42.0 1.0 1.0
-0.90156674 -0.15675499 0.27485019 0.037163663655519485 0.9990032315254211 -0.0247261431068182 255.0 43.0 1.0 1.0
-0.91072696 -0.14853671 0.27714673 0.029158497229218483 0.9994350671768188 -0.016715606674551964 255.0 43.0 1.0 1.0
-0.91295183 -0.15791662 0.3052288 0.02914988063275814 0.9991397261619568 -0.02949976921081543 255.0 44.0 1.0 1.0
-0.94831562 -0.15383288 0.31647441 0.02914988063275814 0.9991397261619568 -0.02949976921081543 255.0 44.0 1.0 1.0
-0.93441826 -0.16079728 0.34069672 0.012698479928076267 0.9998599886894226 -0.010898666456341743 255.0 45.0 1.0 1.0
-0.89888895 -0.14498538 0.32718936 0.012698479928076267 0.9998599886894226 -0.010898666456341743 255.0 45.0 1.0 1.0
-0.87388355 -0.14940794 0.3455365 0.045708104968070984 0.9979891777038574 -0.0439116507768631 255.0 46.0 1.0 1.0
-0.92693329 -0.14852366 0.36584216 0.045708104968070984 0.9979891777038574 -0.0439116507768631 255.0 46.0 1.0 1.0
-0.90444463 -0.15383284 0.38653088 0.010020816698670387 0.9995821118354797 -0.027113275602459908 255.0 47.0 1.0 1.0
-0.90237057 -0.14376648 0.38497922 0.04563760384917259 0.9964497685432434 -0.07074756175279617 255.0 47.0 1.0 1.0
-0.88697195 -0.33977816 0.43208724 0.02623068168759346 0.9959326386451721 -0.0861983373761177 255.0 48.0 1.0 1.0
-0.87341702 -0.32412574 0.42381498 0.02623068168759346 0.9959326386451721 -0.0861983373761177 244.0 48.0 1.0 1.0
-0.86839068 -0.33369407 0.45477021 0.020774787291884422 0.9964073300361633 -0.08210287243127823 244.0 49.0 1.0 1.0
-0.87521136 -0.32583255 0.45652378 0.020774787291884422 0.9964073300361633 -0.08210287243127823 238.0 49.0 1.0 1.0
-0.87227523 -0.33640924 0.4899905 0.020801488310098648 0.9976879954338074 -0.06469997763633728 244.0 50.0 1.0 1.0
-0.87243652 -0.32600981 0.48813465 0.036358654499053955 0.9961165189743042 -0.08018802851438522 241.0 50.0 1.0 1.0
-0.85840732 -0.3326031 0.516406 0.03615244850516319 0.9904671311378479 -0.13292044401168823 229.0 51.0 1.0 1.0
-0.8585822 -0.32236299 0.51445013 0.03615244850516319 0.9904671311378479 -0.13292044401168823 235.0 51.0 1.0 1.0
-0.85012722 -0.33075473 0.54684502 0.06823916733264923 0.9925245642662048 -0.10118494927883148 229.0 52.0 1.0 1.0
-0.83749497 -0.31577045 0.53657115 0.06823916733264923 0.9925245642662048 -0.10118494927883148 217.0 52.0 1.0 1.0
-0.84686464 -0.33118409 0.58191234 0.056987371295690536 0.9945544004440308 -0.08725739270448685 226.0 53.0 1.0 1.0
-0.82823271 -0.31392404 0.5668332 0.056987371295690536 0.9945544004440308 -0.08725739270448685 220.0 53.0 1.0 1.0
-0.85418266 -0.33610961 0.62693483 0.0516897477209568 0.9930838942527771 -0.1054157167673111 229.0 54.0 1.0 1.0
-0.83605105 -0.31889153 0.61115593 0.0516897477209568 0.9930838942527771 -0.1054157167673111 220.0 54.0 1.0 1.0
-0.82327294 -0.32592633 0.64526594 0.02105209045112133 0.9971638321876526 -0.07225731760263443 217.0 55.0 1.0 1.0
-0.83570355 -0.32076207 0.65232629 0.02105209045112133 0.9971638321876526 -0.07225731760263443 229.0 55.0 1.0 1.0
-0.83561242 -0.33334559 0.69957489 0.02104552648961544 0.996852695941925 -0.07643269002437592 220.0 56.0 1.0 1.0
-0.81549454 -0.3154473 0.67994595 0.02561001479625702 0.9960062503814697 -0.08553250879049301 211.0 56.0 1.0 1.0
-0.81631362 -0.3284474 0.73055464 0.03213357925415039 0.9975472092628479 -0.06218530237674713 220.0 57.0 1.0 1.0
-0.82545012 -0.32211739 0.73566002 0.02564356103539467 0.9973108768463135 -0.06865298002958298 220.0 57.0 1.0 1.0
-0.82322443 -0.33406824 0.7882182 0.035985346883535385 0.9981958270072937 -0.04806322604417801 217.0 58.0 1.0 1.0
-0.81275678 -0.31993756 0.77495301 0.035985346883535385 0.9981958270072937 -0.04806322604417801 220.0 58.0 1.0 1.0
-0.82082212 -0.33659738 0.84285784 0.028897935524582863 0.9986134171485901 -0.04400169849395752 226.0 59.0 1.0 1.0
-0.80813366 -0.32153839 0.82633662 0.028897935524582863 0.9986134171485901 -0.04400169849395752 220.0 59.0 1.0 1.0
-0.79653031 -0.330854 0.87933856 0.03295012563467026 0.9992674589157104 -0.01946103759109974 226.0 60.0 1.0 1.0
-0.81035352 -0.32668531 0.89075327 0.03295012563467026 0.9992674589157104 -0.01946103759109974 232.0 60.0 1.0 1.0
-0.8069309 -0.34013781 0.96048844 0.014342660084366798 0.9994645714759827 -0.02940855175256729 241.0 61.0 1.0 1.0
-0.80546337 -0.32962123 0.9545787 0.014342660084366798 0.9994645714759827 -0.02940855175256729 244.0 61.0 1.0 1.0
-0.81586796 -0.34945017 1.0512036 0.007836902514100075 0.9999533891677856 -0.005637591239064932 255.0 62.0 1.0 1.0
-0.80756897 -0.33592165 1.0359282 0.007836902514100075 0.9999533891677856 -0.005637591239064932 250.0 62.0 1.0 1.0
-0.81479943 -0.35590753 1.1426282 -0.0023400739300996065 0.9992088079452515 -0.03970147296786308 255.0 63.0 1.0 1.0
-0.80717468 -0.34254742 1.1268495 -0.0023400739300996065 0.9992088079452515 -0.03970147296786308 255.0 63.0 1.0 1.0
-0.48598412 -0.047140125 -0.64300102 0.19524312019348145 0.002624735003337264 0.9807513952255249 250.0 0.0 1.0 1.0
-0.49027067 -0.052756246 -0.64937025 0.19524312019348145 0.002624735003337264 0.9807513952255249 250.0 0.0 1.0 1.0
-0.51882726 -0.05392652 -0.63187253 0.19775179028511047 0.06638163328170776 0.9780018925666809 238.0 1.0 1.0 1.0
-0.51822895 -0.059363682 -0.63187224 0.19775179028511047 0.06638163328170776 0.9780018925666809 244.0 1.0 1.0 1.0
-0.55525494 -0.060784746 -0.62650275 0.1936730593442917 -0.05944124609231949 0.9792636632919312 241.0 2.0 1.0 1.0
-0.54929572 -0.06596376 -0.62053263 0.15653571486473083 -0.021182408556342125 0.9874451160430908 232.0 2.0 1.0 1.0
-0.59961879 -0.068645455 -0.62847334 0.22933164238929749 -0.00985352136194706 0.9732984900474548 238.0 3.0 1.0 1.0
-0.59061301 -0.073889911 -0.61981982 0.22933164238929749 -0.00985352136194706 0.9732984900474548 235.0 3.0 1.0 1.0
-0.63811088 -0.075677976 -0.62346309 0.21110954880714417 -0.09593656659126282 0.972743034362793 247.0 4.0 1.0 1.0
-0.62588835 -0.080883071 -0.61232358 0.21110954880714417 -0.09593656659126282 0.972743034362793 235.0 4.0 1.0 1.0
-0.66162813 -0.080826633 -0.60373783 0.20197732746601105 0.04007237032055855 0.9785701632499695 232.0 5.0 1.0 1.0
-0.66661859 -0.088542558 -0.6091069 0.20197732746601105 0.04007237032055855 0.9785701632499695 235.0 5.0 1.0 1.0
-0.72936648 -0.091473974 -0.62260622 0.17187604308128357 0.005049648229032755 0.9851056337356567 250.0 6.0 1.0 1.0
-0.72836345 -0.099113733 -0.62260574 0.17187604308128357 0.005049648229032755 0.9851056337356567 253.0 6.0 1.0 1.0
-0.75796312 -0.097093537 -0.60605228 0.18023569881916046 0.06387266516685486 0.981547474861145 244.0 7.0 1.0 1.0
-0.76310831 -0.10589752 -0.61102211 0.18023569881916046 0.06387266516685486 0.981547474861145 250.0 7.0 1.0 1.0
-0.81431776 -0.10622301 -0.61054301 0.14476364850997925 0.05436362326145172 0.9879716634750366 255.0 8.0 1.0 1.0
-0.80679846 -0.11385138 -0.60577005 0.12809023261070251 0.05448979139328003 0.9902645349502563 250.0 8.0 1.0 1.0
-0.86790389 -0.11524495 -0.61040962 0.15363353490829468 0.0239066481590271 0.9878386855125427 255.0 9.0 1.0 1.0
-0.85690051 -0.12293131 -0.60354686 0.12382856011390686 0.024007676169276237 0.9920132160186768 255.0 9.0 1.0 1.0
-0.92858529 -0.12481654 -0.61236107 0.14627103507518768 -0.13133719563484192 0.9804872870445251 255.0 10.0 1.0 1.0
-0.92390871 -0.13405824 -0.61017233 0.1764581799507141 -0.09148763865232468 0.9800472259521484 255.0 10.0 1.0 1.0
-0.98972064 -0.1348207 -0.61173379 0.17760594189167023 0.2554589509963989 0.9503666758537292 255.0 11.0 1.0 1.0
-1.0051233 -0.14767067 -0.62217778 -0.46724462509155273 0.8126640319824219 0.3482234477996826 255.0 11.0 1.0 1.0
-0.99987 -0.13780646 -0.57838625 0.006551400292664766 0.7025893330574036 0.7115654349327087 255.0 12.0 1.0 1.0
-1.0052323 -0.14929928 -0.58236301 0.006551400292664766 0.7025893330574036 0.7115654349327087 255.0 12.0 1.0 1.0
-1.0085685 -0.14026344 -0.54573464 0.009323777630925179 0.9999063014984131 0.010023081675171852 255.0 13.0 1.0 1.0
-0.99657959 -0.14925353 -0.54006559 0.009323777630925179 0.9999063014984131 0.010023081675171852 255.0 13.0 1.0 1.0
-0.99483198 -0.13940822 -0.5026623 0.008574305102229118 0.9999626278877258 0.0010758230928331614 255.0 14.0 1.0 1.0
-0.99684936 -0.15035994 -0.50445157 0.008574305102229118 0.9999626278877258 0.0010758230928331614 255.0 14.0 1.0 1.0
-0.98652685 -0.13929285 -0.46455926 0.0028350066859275103 0.9989714026451111 -0.04525439813733101 255.0 15.0 1.0 1.0
-0.99217671 -0.15071444 -0.46793959 0.0028350066859275103 0.9989714026451111 -0.04525439813733101 255.0 15.0 1.0 1.0
-0.99611521 -0.35051572 -0.45850521 0.01553380023688078 0.9989997148513794 -0.04193307086825371 255.0 16.0 1.0 1.0
-0.98204172 -0.35716912 -0.45372465 0.012289272621273994 0.9991755485534668 -0.03869318962097168 255.0 16.0 1.0 1.0
-0.98337495 -0.34486723 -0.41915599 0.013098342344164848 0.9999037384986877 -0.004574216902256012 255.0 17.0 1.0 1.0
-0.98668146 -0.35768399 -0.42214054 0.015547089278697968 0.9998544454574585 -0.007023386191576719 255.0 17.0 1.0 1.0
-0.99061471 -0.3460449 -0.3893857 0.019055355340242386 0.999387264251709 -0.02935815416276455 255.0 18.0 1.0 1.0
-0.97282439 -0.35130751 -0.38381734 0.019055355340242386 0.999387264251709 -0.02935815416276455 255.0 18.0 1.0 1.0
-0.98617393 -0.34332967 -0.35597342 0.017166899517178535 0.9980801343917847 -0.0595095120370388 255.0 19.0 1.0 1.0
-0.97895736 -0.3523615 -0.3546814 0.017166899517178535 0.9980801343917847 -0.0595095120370388 255.0 19.0 1.0 1.0
-0.97700781 -0.33917591 -0.32221645 0.015668444335460663 0.997999370098114 -0.06125212460756302 255.0 20.0 1.0 1.0
-0.9877727 -0.35455978 -0.32697615 0.004547252785414457 0.9993260502815247 -0.03642516955733299 255.0 20.0 1.0 1.0
-0.96678388 -0.33467439 -0.28949487 -0.0023730136454105377 0.999061107635498 -0.0432591512799263 255.0 21.0 1.0 1.0
-0.96322101 -0.34478623 -0.28949383 -0.0023730136454105377 0.999061107635498 -0.0432591512799263 255.0 21.0 1.0 1.0
-0.97395504 -0.33620387 -0.2624346 0.008221746422350407 0.999732494354248 -0.021618783473968506 255.0 22.0 1.0 1.0
-0.97037572 -0.34639066 -0.26243356 -0.002375092590227723 0.9999364018440247 -0.01102467067539692 255.0 22.0 1.0 1.0
-0.96925038 -0.3338176 -0.23291187 0.009748379699885845 0.9989348649978638 -0.04510243237018585 255.0 23.0 1.0 1.0
-0.9399786 -0.33478689 -0.226703 0.009748379699885845 0.9989348649978638 -0.04510243237018585 255.0 23.0 1.0 1.0
-0.95997119 -0.33005321 -0.20316063 0.0033045043237507343 0.9987753629684448 -0.04936512932181358 255.0 24.0 1.0 1.0
-0.96384716 -0.34272394 -0.20473091 0.0033045043237507343 0.9987753629684448 -0.04936512932181358 255.0 24.0 1.0 1.0
-0.96859801 -0.33226269 -0.17743304 0.007676246110349894 0.9980185627937317 -0.06245045363903046 255.0 25.0 1.0 1.0
-0.95763248 -0.33975571 -0.17606464 0.007676246110349894 0.9980185627937317 -0.06245045363903046 255.0 25.0 1.0 1.0
-0.96156669 -0.32928249 -0.14912745 0.03391877934336662 0.9991011023521423 -0.02542681060731411 255.0 26.0 1.0 1.0
-0.95060056 -0.33669496 -0.14796337 0.007690973114222288 0.9999333024024963 -0.008624215610325336 255.0 26.0 1.0 1.0
-0.97249907 -0.3326475 -0.12401812 0.018846159800887108 0.9958351254463196 -0.0892033576965332 255.0 27.0 1.0 1.0
-0.95024055 -0.33619097 -0.12161665 0.018846159800887108 0.9958351254463196 -0.0892033576965332 255.0 27.0 1.0 1.0
-0.95653522 -0.32661918 -0.095666744 0.017604736611247063 0.9989922642707825 -0.041286345571279526 255.0 28.0 1.0 1.0
-0.93428522 -0.32998723 -0.093776129 0.017604736611247063 0.9989922642707825 -0.041286345571279526 255.0 28.0 1.0 1.0
-0.96993726 -0.33100805 -0.070514716 0.03848503530025482 0.9974653720855713 -0.05984744057059288 255.0 29.0 1.0 1.0
-0.9588874 -0.33849376 -0.069962405 0.017604736611247063 0.9989922642707825 -0.041286345571279526 255.0 29.0 1.0 1.0
-0.9562636 -0.32614794 -0.043613106 0.025595832616090775 0.9973911046981812 -0.06749854236841202 255.0 30.0 1.0 1.0
-0.93771785 -0.33082685 -0.042917427 0.007920830510556698 0.99945068359375 -0.032182224094867706 255.0 30.0 1.0 1.0
-0.93435925 -0.31848493 -0.017442126 0.025595832616090775 0.9973911046981812 -0.06749854236841202 255.0 31.0 1.0 1.0
-0.96113849 -0.33890602 -0.018016549 0.025595832616090775 0.9973911046981812 -0.06749854236841202 255.0 31.0 1.0 1.0
-0.92940372 -0.13630971 0.0075561437 0.039411574602127075 0.9956579804420471 -0.0843319445848465 255.0 32.0 1.0 1.0
-0.95557678 -0.15040624 0.0077721691 0.024216357618570328 0.9955480098724365 -0.09109175205230713 255.0 32.0 1.0 1.0
-0.92105722 -0.13475154 0.031221753 0.013903440907597542 0.9966292977333069 -0.0808514729142189 255.0 33.0 1.0 1.0
-0.95513237 -0.14999257 0.032415818 0.013903440907597542 0.9966292977333069 -0.0808514729142189 255.0 33.0 1.0 1.0
-0.94370836 -0.1379061 0.056351647 0.02537977136671543 0.9982463717460632 -0.053480204194784164 255.0 34.0 1.0 1.0
-0.92642862 -0.14530483 0.055414569 0.013936764560639858 0.9990179538726807 -0.04205891489982605 255.0 34.0 1.0 1.0
-0.93015575 -0.13591789 0.079674117 0.025358861312270164 0.9974239468574524 -0.06710093468427658 255.0 35.0 1.0 1.0
-0.94442576 -0.14813419 0.081019647 0.025358861312270164 0.9974239468574524 -0.06710093468427658 255.0 35.0 1.0 1.0
-0.92789209 -0.13525347 0.10369731 0.023046569898724556 0.9976322650909424 -0.06479735672473907 255.0 36.0 1.0 1.0
-0.95784229 -0.14990017 0.10720209 0.023046569898724556 0.9976322650909424 -0.06479735672473907 255.0 36.0 1.0 1.0
-0.9289186 -0.13507067 0.1283728 0.023094017058610916 0.9996861815452576 -0.00969761423766613 255.0 37.0 1.0 1.0
-0.9274478 -0.14479652 0.1283734 0.023094017058610916 0.9996861815452576 -0.00969761423766613 255.0 37.0 1.0 1.0
-0.91371697 -0.13236283 0.15046968 0.027704160660505295 0.9986542463302612 -0.04384124279022217 255.0 38.0 1.0 1.0
-0.93178034 -0.14497274 0.15367851 0.027704160660505295 0.9986542463302612 -0.04384124279022217 255.0 38.0 1.0 1.0
-0.91743833 -0.13241135 0.17568734 0.009155426174402237 0.9979053735733032 -0.0640404224395752 255.0 39.0 1.0 1.0
-0.94318193 -0.14624412 0.1808894 0.03159015625715256 0.9957632422447205 -0.08635734766721725 255.0 39.0 1.0 1.0
-0.90493947 -0.13027731 0.19797724 0.00916990265250206 0.9994832873344421 -0.030808620154857635 255.0 40.0 1.0 1.0
-0.90352023 -0.13975172 0.19797783 0.00916990265250206 0.9994832873344421 -0.030808620154857635 255.0 40.0 1.0 1.0
-0.9188568 -0.13163076 0.22649495 0.037110909819602966 0.9975852370262146 -0.058708544820547104 255.0 41.0 1.0 1.0
-0.92126346 -0.14184391 0.22744186 0.037110909819602966 0.9975852370262146 -0.058708544820547104 255.0 41.0 1.0 1.0
-0.9128207 -0.13011092 0.25055501 0.029158497229218483 0.9994350671768188 -0.016715606674551964 255.0 42.0 1.0 1.0
-0.9114027 -0.13966775 0.2505556 0.037163663655519485 0.9990032315254211 -0.0247261431068182 255.0 42.0 1.0 1.0
-0.90607011 -0.1283367 0.27484563 0.029158497229218483 0.9994350671768188 -0.016715606674551964 255.0 43.0 1.0 1.0
-0.88194573 -0.13435005 0.26795447 0.029158497229218483 0.9994350671768188 -0.016715606674551964 255.0 43.0 1.0 1.0
-0.9024362 -0.12701485 0.30022588 0.012698152102530003 0.9998342394828796 -0.01304827630519867 255.0 44.0 1.0 1.0
-0.91232133 -0.13817519 0.30397525 0.012698152102530003 0.9998342394828796 -0.01304827630519867 255.0 44.0 1.0 1.0
-0.90920419 -0.12715942 0.32988685 0.045708104968070984 0.9979891777038574 -0.0439116507768631 255.0 45.0 1.0 1.0
-0.89664871 -0.13499159 0.32583544 0.012698479928076267 0.9998599886894226 -0.010898666456341743 255.0 45.0 1.0 1.0
-0.88186187 -0.12237819 0.34698248 0.045708104968070984 0.9979891777038574 -0.0439116507768631 255.0 46.0 1.0 1.0
-0.90633219 -0.13548119 0.35713622 0.045708104968070984 0.9979891777038574 -0.0439116507768631 255.0 46.0 1.0 1.0
-0.89059341 -0.12279989 0.37877133 0.013014496304094791 0.9991856217384338 -0.038193367421627045 255.0 47.0 1.0 1.0
-0.8965466 -0.1332117 0.38187394 0.013014496304094791 0.9991856217384338 -0.038193367421627045 255.0 47.0 1.0 1.0
-0.86971545 -0.30215919 0.41884679 0.017788926139473915 0.9979882836341858 -0.06085285171866417 235.0 48.0 1.0 1.0
-0.87677926 -0.31495211 0.42381045 0.02623068168759346 0.9959326386451721 -0.0861983373761177 241.0 48.0 1.0 1.0
-0.87168282 -0.30386427 0.45125455 0.017761779949069023 0.996465265750885 -0.08210764825344086 238.0 49.0 1.0 1.0
-0.88873541 -0.32029969 0.46178305 0.017761779949069023 0.996465265750885 -0.08210764825344086 250.0 49.0 1.0 1.0
-0.86905992 -0.30413815 0.4825649 0.017374176532030106 0.9949323534965515 -0.09903395175933838 238.0 50.0 1.0 1.0
-0.8591575 -0.31081337 0.47885627 0.036358654499053955 0.9961165189743042 -0.08018802851438522 232.0 50.0 1.0 1.0
-0.85529101 -0.30082101 0.50858021 0.03615244850516319 0.9904671311378479 -0.13292044401168823 229.0 51.0 1.0 1.0
-0.85208851 -0.30976549 0.50858116 0.03615244850516319 0.9904671311378479 -0.13292044401168823 220.0 51.0 1.0 1.0
-0.82453173 -0.29128277 0.52423829 0.024032004177570343 0.9923633337020874 -0.12098527699708939 211.0 52.0 1.0 1.0
-0.84077162 -0.30697432 0.53656662 0.03615244850516319 0.9904671311378479 -0.13292044401168823 220.0 52.0 1.0 1.0
-0.84417361 -0.29988483 0.57328981 0.056062713265419006 0.9944655299186707 -0.0888555645942688 223.0 53.0 1.0 1.0
-0.84098148 -0.30871281 0.57329071 0.028529241681098938 0.9957679510116577 -0.08736386150121689 226.0 53.0 1.0 1.0
-0.858123 -0.30686828 0.62242037 0.028478870168328285 0.9940099716186523 -0.10551401227712631 238.0 54.0 1.0 1.0
-0.84555888 -0.31240362 0.61565936 0.028478870168328285 0.9940099716186523 -0.10551401227712631 223.0 54.0 1.0 1.0
-0.84225887 -0.30317801 0.65232086 0.02105209045112133 0.9971638321876526 -0.07225731760263443 229.0 55.0 1.0 1.0
-0.84812534 -0.31537002 0.65938312 0.02105209045112133 0.9971638321876526 -0.07225731760263443 235.0 55.0 1.0 1.0
-0.81897372 -0.29720908 0.67748696 0.03190188854932785 0.9953736662864685 -0.09062941372394562 214.0 56.0 1.0 1.0
-0.81581098 -0.30577314 0.67748785 0.03190188854932785 0.9953736662864685 -0.09062941372394562 211.0 56.0 1.0 1.0
-0.81469047 -0.29838866 0.72033519 0.02564356103539467 0.9973108768463135 -0.06865298002958298 211.0 57.0 1.0 1.0
-0.82879359 -0.313449 0.73565549 0.02564356103539467 0.9973108768463135 -0.06865298002958298 217.0 57.0 1.0 1.0
-0.82491517 -0.30491337 0.78025317 0.012322203256189823 0.9987668991088867 -0.048090726137161255 220.0 58.0 1.0 1.0
-0.81607795 -0.31140262 0.77494848 0.012322203256189823 0.9987668991088867 -0.048090726137161255 217.0 58.0 1.0 1.0
-0.81742883 -0.30554989 0.82908446 0.006266410928219557 0.9987289905548096 -0.05001125484704971 226.0 59.0 1.0 1.0
-0.81417865 -0.31409737 0.82908535 0.02340921387076378 0.99898362159729 -0.038518570363521576 220.0 59.0 1.0 1.0
-0.8196587 -0.31062737 0.89360166 0.02340921387076378 0.99898362159729 -0.038518570363521576 235.0 60.0 1.0 1.0
-0.81374544 -0.31817597 0.89074868 0.02340921387076378 0.99898362159729 -0.038518570363521576 232.0 60.0 1.0 1.0
-0.80466193 -0.30976242 0.94571018 0.011449279263615608 0.9999324083328247 0.002048783702775836 238.0 61.0 1.0 1.0
-0.80136824 -0.3181757 0.94571108 0.016759352758526802 0.9997784495353699 -0.01273390743881464 235.0 61.0 1.0 1.0
-0.81685209 -0.31986916 1.0389775 0.015523620881140232 0.9998774528503418 0.002050162060186267 255.0 62.0 1.0 1.0
-0.8182404 -0.33034384 1.0450882 0.015523620881140232 0.9998774528503418 0.002050162060186267 255.0 62.0 1.0 1.0
-0.80506366 -0.32190681 1.1142218 0.0031561246141791344 0.9993888735771179 -0.03481219708919525 255.0 63.0 1.0 1.0
-0.80846047 -0.33313453 1.1236893 -0.0009083535987883806 0.9993206858634949 -0.03684195503592491 255.0 63.0 1.0 1.0
-0.49412248 -0.037489701 -0.65255874 0.19524312019348145 0.002624735003337264 0.9807513952255249 253.0 0.0 1.0 1.0
-0.48887569 -0.042247798 -0.64618897 0.19524312019348145 0.002624735003337264 0.9807513952255249 255.0 0.0 1.0 1.0
-0.51986152 -0.04303012 -0.63187599 0.19775179028511047 0.06638163328170776 0.9780018925666809 244.0 1.0 1.0 1.0
-0.52191341 -0.048717845 -0.63495964 0.19775179028511047 0.06638163328170776 0.9780018925666809 241.0 1.0 1.0 1.0
-0.56438172 -0.049832504 -0.63546085 0.19364137947559357 0.06212324649095535 0.9791035652160645 241.0 2.0 1.0 1.0
-0.56382376 -0.055746861 -0.63546062 0.1936730593442917 -0.05944124609231949 0.9792636632919312 241.0 2.0 1.0 1.0
-0.58990711 -0.055015206 -0.61693919 0.15656301379203796 -0.009998482652008533 0.9876173138618469 235.0 3.0 1.0 1.0
-0.59204978 -0.061484866 -0.61982328 0.15656301379203796 -0.009998482652008533 0.9876173138618469 235.0 3.0 1.0 1.0
-0.63100165 -0.061436225 -0.61511225 0.23087811470031738 -0.0861586332321167 0.9691604971885681 235.0 4.0 1.0 1.0
-0.63888234 -0.068978436 -0.62346625 0.23956674337387085 -0.09529049694538116 0.9661923050880432 238.0 4.0 1.0 1.0
-0.66614473 -0.067231983 -0.60642606 0.18523018062114716 0.008867629803717136 0.9826551675796509 238.0 5.0 1.0 1.0
-0.68602586 -0.076525249 -0.62521881 0.17187143862247467 0.008889504708349705 0.985079288482666 253.0 5.0 1.0 1.0
-0.70988888 -0.073930427 -0.60451627 0.18058668076992035 0.0140391755849123 0.9834588766098022 229.0 6.0 1.0 1.0
-0.70907056 -0.081367083 -0.60451585 0.18058668076992035 0.0140391755849123 0.9834588766098022 235.0 6.0 1.0 1.0
-0.7691986 -0.082180694 -0.61351126 0.14492253959178925 0.027669304981827736 0.9890560507774353 253.0 7.0 1.0 1.0
-0.77140343 -0.090605758 -0.615996 0.18023569881916046 0.06387266516685486 0.981547474861145 247.0 7.0 1.0 1.0
-0.81319189 -0.088773079 -0.60816026 0.15337084233760834 0.06313753873109818 0.9861496090888977 255.0 8.0 1.0 1.0
-0.80265057 -0.096140116 -0.60100126 0.14476364850997925 0.05436362326145172 0.9879716634750366 255.0 8.0 1.0 1.0
-0.86036342 -0.095923975 -0.60355097 0.1473258137702942 0.017455097287893295 0.9889339804649353 253.0 9.0 1.0 1.0
-0.84627849 -0.10333751 -0.59440094 0.15363353490829468 0.0239066481590271 0.9878386855125427 247.0 9.0 1.0 1.0
-0.92768812 -0.10493962 -0.61017644 0.08486728370189667 -0.10745421797037125 0.990581214427948 255.0 10.0 1.0 1.0
-0.92653316 -0.11465574 -0.61017597 0.10950283706188202 -0.13196676969528198 0.985187292098999 255.0 10.0 1.0 1.0
-0.97879183 -0.11247458 -0.60338157 0.1865881234407425 0.25808605551719666 0.947932779788971 255.0 11.0 1.0 1.0
-1.0080152 -0.12656313 -0.62218148 0.1865881234407425 0.25808605551719666 0.947932779788971 255.0 11.0 1.0 1.0
-1.0025563 -0.11681154 -0.57838982 0.017178349196910858 0.8889381885528564 0.4577048718929291 255.0 12.0 1.0 1.0
-1.0219293 -0.1299459 -0.59032142 0.006551400292664766 0.7025893330574036 0.7115654349327087 255.0 12.0 1.0 1.0
-1.0043019 -0.11825833 -0.54195929 0.027666455134749413 0.9978847503662109 0.058825843036174774 255.0 13.0 1.0 1.0
-1.0134934 -0.1301268 -0.54762715 0.027666455134749413 0.9978847503662109 0.058825843036174774 255.0 13.0 1.0 1.0
-0.97979319 -0.11640079 -0.49371588 7.45057623134926e-05 0.9999994039535522 0.0010758626740425825 255.0 14.0 1.0 1.0
-0.99979943 -0.12942576 -0.50445527 0.008574305102229118 0.9999626278877258 0.0010758230928331614 255.0 14.0 1.0 1.0
-0.97485012 -0.11684561 -0.45780089 0.0028350066859275103 0.9989714026451111 -0.04525439813733101 255.0 15.0 1.0 1.0
-0.99513513 -0.12987843 -0.46794328 0.0028350066859275103 0.9989714026451111 -0.04525439813733101 255.0 15.0 1.0 1.0
-0.97189081 -0.31923896 -0.44417217 0.01553380023688078 0.9989997148513794 -0.04193307086825371 255.0 16.0 1.0 1.0
-0.99280226 -0.33768278 -0.45532331 0.01553380023688078 0.9989997148513794 -0.04193307086825371 255.0 16.0 1.0 1.0
-1.0009837 -0.32763979 -0.42363986 0.019063197076320648 0.9997985363006592 -0.006273615639656782 255.0 17.0 1.0 1.0
-0.98343581 -0.33334112 -0.4176676 0.013098342344164848 0.9999037384986877 -0.004574216902256012 255.0 17.0 1.0 1.0
-0.97271121 -0.31705716 -0.3796483 0.017192520201206207 0.9995697140693665 -0.023764576762914658 255.0 18.0 1.0 1.0
-0.97999072 -0.33083376 -0.38382283 0.017192520201206207 0.9995697140693665 -0.023764576762914658 255.0 18.0 1.0 1.0
-0.98956954 -0.32140794 -0.35468787 0.004549204371869564 0.999754786491394 -0.02166990377008915 255.0 19.0 1.0 1.0
-0.9717924 -0.32692626 -0.34952313 0.017166899517178535 0.9980801343917847 -0.0595095120370388 255.0 19.0 1.0 1.0
-0.9584896 -0.31037503 -0.31389043 0.012387442402541637 0.9989871382713318 -0.04325594753026962 255.0 20.0 1.0 1.0
-0.98052311 -0.32891035 -0.32222083 0.015668444335460663 0.997999370098114 -0.06125212460756302 255.0 20.0 1.0 1.0
