ply
format ascii 1.0
element vertex 430
property float x
property float y
property float z
property float nx
property float ny
property float nz
property float intensity
property float ring
property float return
property float label
end_header
2.5511236 -0.38984004 1.4359554 -0.023452822118997574 -0.04023096710443497 -0.9989151954650879 255.0 51.0 1.0 1.0
2.4004116 -0.38894916 1.4462997 0.3239603638648987 -0.06644370406866074 -0.9437345862388611 255.0 52.0 1.0 1.0
2.3601825 -0.35714409 1.4196969 0.3239603638648987 -0.06644370406866074 -0.9437345862388611 255.0 52.0 1.0 1.0
2.2416692 -0.35907602 1.4416611 0.35358989238739014 -0.07195448875427246 -0.9326289296150208 255.0 53.0 1.0 1.0
2.255338 -0.33714572 1.4480782 -0.030357666313648224 -0.04632508382201195 -0.9984650015830994 255.0 53.0 1.0 1.0
2.1399424 -0.33807507 1.4685524 -0.0406518392264843 -0.06637666374444962 -0.9969661235809326 255.0 54.0 1.0 1.0
2.1335537 -0.31425664 1.4618024 -0.1826646327972412 -0.04841679707169533 -0.981982409954071 255.0 54.0 1.0 1.0
2.0185506 -0.31444195 1.4776769 -0.19305405020713806 -0.02324853092432022 -0.9809125661849976 255.0 55.0 1.0 1.0
2.0313673 -0.29475042 1.4846963 -0.18620748817920685 -0.07989237457513809 -0.979256808757782 255.0 55.0 1.0 1.0
1.9134126 -0.29282025 1.4941734 -0.15987466275691986 -0.011866772547364235 -0.9870660305023193 253.0 56.0 1.0 1.0
1.9195225 -0.27327803 1.4966042 -0.1265372782945633 -0.011924770660698414 -0.9918902516365051 250.0 56.0 1.0 1.0
1.8203131 -0.27293846 1.5170788 -0.13802212476730347 -0.05254296585917473 -0.9890344738960266 255.0 57.0 1.0 1.0
1.8230858 -0.25392461 1.5170658 -0.13143743574619293 -0.05268460139632225 -0.9899235367774963 255.0 57.0 1.0 1.0
1.7204827 -0.25263557 1.5316164 -0.1603603959083557 -0.09504862129688263 -0.9824715852737427 253.0 58.0 1.0 1.0
1.7200748 -0.23426194 1.52896 -0.13080841302871704 -0.06504455953836441 -0.9892717003822327 250.0 58.0 1.0 1.0
1.6255417 -0.23249644 1.5487934 -0.11059021949768066 -0.043044038116931915 -0.9929335117340088 255.0 59.0 1.0 1.0
1.6423208 -0.21744496 1.5625082 -0.1797575056552887 -0.04018019139766693 -0.9828900098800659 255.0 59.0 1.0 1.0
1.5186377 -0.21005577 1.5515878 -0.1347881704568863 -0.08441438525915146 -0.9872722029685974 255.0 60.0 1.0 1.0
1.5235564 -0.19456387 1.5544236 -0.16383013129234314 -0.06817323714494705 -0.9841300249099731 255.0 60.0 1.0 1.0
1.4411517 -0.19155024 1.5828931 -0.17235980927944183 -0.05475284159183502 -0.9835111498832703 255.0 61.0 1.0 1.0
1.4404081 -0.1761831 1.579937 -0.16833703219890594 -0.050620295107364655 -0.9844289422035217 255.0 61.0 1.0 1.0
1.3454638 -0.17083237 1.5943788 -0.12110866606235504 -0.059325795620679855 -0.9908648729324341 255.0 62.0 1.0 1.0
1.3446203 -0.15649764 1.5913227 -0.12110866606235504 -0.059325795620679855 -0.9908648729324341 255.0 62.0 1.0 1.0
1.2628294 -0.1510587 1.6220083 -0.14521045982837677 -0.06152493134140968 -0.9874860644340515 255.0 63.0 1.0 1.0
1.2545475 -0.13681422 1.6094062 -0.14521045982837677 -0.06152493134140968 -0.9874860644340515 255.0 63.0 1.0 1.0
6.6708355 -1.1130217 -2.5305636 -0.33641624450683594 -0.9247671365737915 0.1778475046157837 18.0 18.0 2.0 1.0
7.7710695 -1.3049892 -2.7104404 -0.47714078426361084 -0.8597713708877563 0.182016521692276 20.0 19.0 2.0 6.0
8.3196011 -1.4044745 -2.6544721 -0.5607830882072449 -0.7880626320838928 0.25392836332321167 20.0 20.0 2.0 6.0
8.4016905 -1.3279388 -2.6761513 -0.4312863349914551 -0.8787024617195129 0.20463168621063232 24.0 20.0 2.0 6.0
8.7366962 -1.3885745 -2.5301201 -0.373035192489624 -0.910696268081665 0.17741800844669342 29.0 21.0 2.0 6.0
9.0617971 -1.5457639 -2.3691375 -0.7446491122245789 -0.421781063079834 0.517299234867096 28.0 22.0 2.0 6.0
9.0392437 -1.4446083 -2.3592219 0.05728670954704285 -0.8162309527397156 0.5748785138130188 25.0 22.0 2.0 6.0
9.0645542 -1.5525588 -2.1170859 -0.34396877884864807 -0.9224181771278381 0.1755853295326233 24.0 23.0 2.0 6.0
9.0880165 -1.4587363 -2.118952 0.29529502987861633 -0.9506877064704895 0.09483516216278076 24.0 23.0 2.0 6.0
11.058583 -1.7981974 -1.3854942 0.05062854290008545 -0.9948819279670715 -0.08744531124830246 14.0 27.0 2.0 5.0
11.077376 -1.8069956 -1.0960879 -0.054833315312862396 -0.9969139695167542 -0.0561763234436512 15.0 28.0 2.0 5.0
11.109128 -1.9336147 -0.8097465 0.3041212856769562 -0.9514991641044617 -0.046471234411001205 21.0 29.0 2.0 5.0
11.109087 -1.8139496 -0.80840045 0.1028333455324173 -0.9945012927055359 0.019810326397418976 20.0 29.0 2.0 5.0
11.164948 -1.9451212 -0.52346307 0.5235418677330017 -0.8517658710479736 0.019972609356045723 19.0 30.0 2.0 5.0
11.141337 -1.8210022 -0.52151871 0.021698670461773872 -0.9962890148162842 0.08329124748706818 21.0 30.0 2.0 5.0
11.197804 -1.9526389 -0.23545904 0.1314947009086609 -0.9911667108535767 -0.01724986732006073 20.0 31.0 2.0 5.0
11.190022 -1.8307564 -0.23496608 0.06709212064743042 -0.9969094395637512 0.04087023437023163 19.0 31.0 2.0 5.0
21.725422 -8.0897045 3.0999966 -0.2572079002857208 -0.9648555517196655 -0.053831543773412704 8.0 37.0 2.0 6.0
1.2025213 -0.54535413 -1.74485 0.0780777633190155 -0.015596561133861542 0.9968252778053284 255.0 0.0 1.0 1.0
1.1927288 -0.52586156 -1.7225348 0.18438388407230377 -0.015376085415482521 0.982733964920044 255.0 0.0 1.0 1.0
1.3094347 -0.58299142 -1.7423822 0.07624789327383041 0.007779305800795555 0.9970585107803345 255.0 1.0 1.0 1.0
1.3108135 -0.56718481 -1.7362233 0.07624789327383041 0.007779305800795555 0.9970585107803345 250.0 1.0 1.0 1.0
1.4379332 -0.63080716 -1.7674924 0.13884307444095612 0.0036655759904533625 0.990307629108429 255.0 2.0 1.0 1.0
1.4469073 -0.61671686 -1.7705073 0.14767222106456757 0.012679364532232285 0.9889550805091858 255.0 2.0 1.0 1.0
1.5685261 -0.6788798 -1.7863346 0.20884789526462555 -0.03579528257250786 0.9772928953170776 253.0 3.0 1.0 1.0
1.5628188 -0.65700847 -1.7719034 0.13334210216999054 -0.036275576800107956 0.9904059171676636 244.0 3.0 1.0 1.0
1.7020094 -0.72846431 -1.8031038 0.14088556170463562 0.04806018993258476 0.988858699798584 250.0 4.0 1.0 1.0
1.712194 -0.71166027 -1.8059231 0.14088556170463562 0.04806018993258476 0.988858699798584 253.0 4.0 1.0 1.0
1.8558099 -0.78656179 -1.8328617 0.0972328782081604 0.006566832773387432 0.9952399730682373 247.0 5.0 1.0 1.0
1.8502752 -0.76140279 -1.8194301 0.11642485111951828 0.006553226616233587 0.9931778907775879 244.0 5.0 1.0 1.0
2.0173113 -0.84746951 -1.8608767 0.1912197768688202 0.05229330435395241 0.9801533222198486 247.0 6.0 1.0 1.0
2.0204408 -0.8239494 -1.8557235 0.20054945349693298 0.033094290643930435 0.9791244864463806 250.0 6.0 1.0 1.0
2.1690903 -0.90446949 -1.8717721 0.1265554428100586 0.05454925075173378 0.9904585480690002 229.0 7.0 1.0 1.0
2.1813469 -0.88283634 -1.874299 0.11405804008245468 0.04908902198076248 0.9922605752944946 244.0 7.0 1.0 1.0
2.3631728 -0.97904575 -1.9101431 0.1883591264486313 0.011929120868444443 0.9820277690887451 247.0 8.0 1.0 1.0
2.3733006 -0.95419961 -1.91018 0.1169615313410759 0.012063173577189445 0.9930631518363953 244.0 8.0 1.0 1.0
2.5604534 -1.0539027 -1.9393423 0.1191113144159317 0.04656508192420006 0.9917883276939392 232.0 9.0 1.0 1.0
2.5804784 -1.0306352 -1.9462689 0.11716142296791077 0.03627956658601761 0.9924499988555908 238.0 9.0 1.0 1.0
2.781738 -1.1398082 -1.9742577 0.14422202110290527 -0.008705289103090763 0.9895071387290955 217.0 10.0 1.0 1.0
2.7811029 -1.1056225 -1.9655139 0.16556841135025024 0.013165929354727268 0.9861104488372803 211.0 10.0 1.0 1.0
3.0506802 -1.2437307 -2.0278361 0.10032262653112411 0.07268983870744705 0.9922961592674255 217.0 11.0 1.0 1.0
3.0572083 -1.2091588 -2.0236876 0.08223959803581238 0.06615324318408966 0.9944145679473877 220.0 11.0 1.0 1.0
3.3276708 -1.3504864 -2.0688822 0.1301984041929245 0.044101763516664505 0.9905067682266235 208.0 12.0 1.0 1.0
3.319066 -1.30662 -2.0549505 0.14481770992279053 0.03427846357226372 0.9888643622398376 196.0 12.0 1.0 1.0
3.6467907 -1.4747357 -2.1200118 0.061359114944934845 -0.006585664115846157 0.9980939626693726 175.0 13.0 1.0 1.0
3.6522069 -1.4325536 -2.1143718 0.1535770744085312 -0.024510527029633522 0.9878326058387756 181.0 13.0 1.0 1.0
4.0333538 -1.6260756 -2.1889372 0.11260154098272324 0.07786335796117783 0.9905847311019897 145.0 14.0 1.0 1.0
4.0435104 -1.5810913 -2.1854002 0.08238357305526733 0.017740590497851372 0.9964427351951599 139.0 14.0 1.0 1.0
4.4961805 -1.8071243 -2.2736568 0.166860431432724 0.07493652403354645 0.9831287860870361 97.0 15.0 1.0 1.0
4.4710097 -1.7427763 -2.2516286 0.1264757364988327 -0.003547540633007884 0.9919633269309998 76.0 15.0 1.0 1.0
4.5478892 -0.84632564 -2.0228562 -0.0008572861552238464 -0.9588602781295776 0.283876895904541 181.0 16.0 1.0 1.0
4.5637259 -0.7998721 -2.0261006 0.0069329263642430305 -0.9907589554786682 0.1354578137397766 208.0 16.0 1.0 1.0
4.8180175 -0.90176713 -1.9865453 0.23829405009746552 -0.970180332660675 0.044341977685689926 241.0 17.0 1.0 1.0
4.7943482 -0.84541488 -1.9730576 0.6456714272499084 -0.7629976272583008 0.03070691041648388 214.0 17.0 1.0 1.0
4.8532953 -0.91439861 -1.8475639 0.41573697328567505 -0.9092112183570862 -0.022305946797132492 241.0 18.0 1.0 1.0
4.8035965 -0.85298812 -1.8251692 0.698416531085968 -0.7143089175224304 -0.04446655139327049 178.0 18.0 1.0 1.0
4.8657794 -0.9219135 -1.7030076 0.5475865602493286 -0.8363033533096313 -0.02730635739862919 244.0 19.0 1.0 1.0
4.8230462 -0.8615461 -1.6848288 0.6259581446647644 -0.7596806883811951 -0.17624318599700928 157.0 19.0 1.0 1.0
4.8851285 -0.92988575 -1.564041 0.47181397676467896 -0.8816972970962524 0.0012087259674444795 253.0 20.0 1.0 1.0
4.838274 -0.86851758 -1.5460709 -0.22898316383361816 -0.9694763422012329 -0.08764881640672684 160.0 20.0 1.0 1.0
4.9078765 -0.93854594 -1.4286084 0.6275507211685181 -0.7723204493522644 -0.09849390387535095 253.0 21.0 1.0 1.0
4.8039079 -0.866561 -1.3956442 -0.8666325211524963 -0.4868915379047394 0.10901696979999542 130.0 21.0 1.0 1.0
4.9271169 -0.94657421 -1.2925607 0.36518895626068115 -0.9168121218681335 0.16153250634670258 255.0 22.0 1.0 2.0
4.940577 -0.8955918 -1.2936009 -0.0 -1.0 0.0 61.0 22.0 1.0 2.0
4.946301 -0.95373309 -1.1591749 -0.026740964502096176 -0.9996402263641357 0.002097327494993806 253.0 23.0 1.0 2.0
4.9445195 -0.89976603 -1.1565242 -0.6374860405921936 -0.756388247013092 0.14658905565738678 26.0 23.0 1.0 2.0
4.95822 -0.95861501 -1.0253478 -0.5495635867118835 -0.8140108585357666 0.18805888295173645 232.0 24.0 1.0 2.0
4.9949861 -0.91155618 -1.0309653 -0.600004255771637 -0.7873761653900146 0.14154110848903656 26.0 24.0 1.0 2.0
4.9549494 -0.96146005 -0.88920796 -0.2831518054008484 -0.9466907978057861 0.1536286324262619 217.0 25.0 1.0 2.0
4.9996247 -0.91590327 -0.89550132 -0.31809863448143005 -0.9463562965393066 0.05677240714430809 26.0 25.0 1.0 2.0
4.9870429 -0.970294 -0.7601766 -0.39855411648750305 -0.9145919680595398 0.06838192045688629 169.0 26.0 1.0 2.0
5.0163908 -0.92158705 -0.76318145 -0.7018263339996338 -0.7068468928337097 0.08835786581039429 19.0 26.0 1.0 2.0
5.023674 -0.97913963 -0.63243192 -0.6395073533058167 -0.7687788605690002 -0.0030609616078436375 82.0 27.0 1.0 2.0
5.0063329 -0.92143762 -0.62903762 -0.559256911277771 -0.8283334970474243 0.03309429809451103 18.0 27.0 1.0 2.0
4.9827824 -0.97375804 -0.49532855 -0.674349844455719 -0.7127387523651123 0.19301742315292358 25.0 28.0 1.0 2.0
5.0670953 -0.93527234 -0.50276053 -0.2644273340702057 -0.9353862404823303 0.23479968309402466 16.0 28.0 1.0 2.0
5.0991902 -0.99734801 -0.37268984 -0.6511645317077637 -0.7577645778656006 0.04216191545128822 23.0 29.0 1.0 2.0
5.081902 -0.93881911 -0.37072706 -0.0954284816980362 -0.9857301115989685 -0.13867132365703583 17.0 29.0 1.0 2.0
5.0988827 -0.99810123 -0.23957214 -0.704268753528595 -0.7073571681976318 -0.0604262612760067 12.0 30.0 1.0 2.0
5.0422726 -0.93229312 -0.23647608 0.08870486915111542 -0.9958274960517883 0.021423153579235077 15.0 30.0 1.0 2.0
5.1266189 -1.004355 -0.10782246 -0.744766116142273 -0.6540930271148682 0.13223358988761902 14.0 31.0 1.0 2.0
5.1172047 -0.9469831 -0.10745167 0.2987729012966156 -0.9424805641174316 -0.1498834788799286 14.0 31.0 1.0 2.0
5.1646581 -2.0398054 0.029106511 0.2856433093547821 -0.9583356976509094 0.0007493873126804829 255.0 32.0 1.0 1.0
5.1185126 -1.9598637 0.028659331 0.013305551372468472 -0.9983210563659668 0.0563746839761734 241.0 32.0 1.0 1.0
5.1133323 -2.0213807 0.16886905 -0.2022482007741928 -0.9180624485015869 -0.34096503257751465 154.0 33.0 1.0 2.0
5.1230311 -1.9634491 0.16842549 -0.048359986394643784 -0.9642800092697144 -0.2604331374168396 145.0 33.0 1.0 2.0
5.1222534 -2.0257409 0.30978209 0.07809223234653473 -0.9919511079788208 -0.09967268258333206 208.0 34.0 1.0 2.0
5.0723529 -1.9448317 0.30544519 0.13388335704803467 -0.9796702265739441 -0.14940397441387177 37.0 34.0 1.0 2.0
6.6999011 -2.6498702 0.58977044 0.0028060274198651314 -0.8547599911689758 -0.5190159678459167 23.0 35.0 1.0 5.0
5.0597811 -1.9398124 0.44359767 -0.017003100365400314 -0.9267849326133728 0.37520742416381836 23.0 35.0 1.0 2.0
5.1137686 -1.9623743 0.58967316 -0.09051567316055298 -0.9931713938713074 0.0736030712723732 29.0 36.0 1.0 2.0
5.6072221 -2.2215319 0.80697191 0.15459488332271576 -0.9877443313598633 -0.021481864154338837 29.0 37.0 1.0 5.0
5.2231126 -2.0062518 0.74856859 -0.1391652226448059 -0.9888352155685425 0.053270213305950165 38.0 37.0 1.0 2.0
4.8802495 -1.9360706 0.83992678 -0.16059763729572296 -0.7205275297164917 -0.674572765827179 44.0 38.0 1.0 1.0
4.8928957 -1.8820633 0.83859056 -0.09250466525554657 -0.021028639748692513 -0.9954901933670044 40.0 38.0 1.0 1.0
4.6127887 -1.8324847 0.92565614 -0.13065385818481445 -0.08328094333410263 -0.9879240989685059 88.0 39.0 1.0 1.0
4.6280689 -1.7827102 0.92485398 -0.14970551431179047 -0.09921490401029587 -0.9837401509284973 79.0 39.0 1.0 1.0
4.2685366 -1.6971574 0.98049366 -0.1533396989107132 -0.18543356657028198 -0.9706190228462219 133.0 40.0 1.0 1.0
4.3262339 -1.6679029 0.98961127 -0.1839177906513214 -0.02500309981405735 -0.9826235771179199 157.0 40.0 1.0 1.0
4.2024932 -1.6740919 1.0896034 -0.12644626200199127 -0.2492993324995041 -0.9601360559463501 255.0 41.0 1.0 1.0
4.2488241 -1.6412611 1.0970317 -0.07233422994613647 -0.25065818428993225 -0.965369462966919 255.0 41.0 1.0 1.0
3.7360096 -1.4909536 1.0802233 -0.11920221149921417 -0.12033596634864807 -0.9855506420135498 255.0 42.0 1.0 1.0
3.7766471 -1.4615674 1.0874273 -0.13143913447856903 -0.12014862149953842 -0.9840162992477417 255.0 42.0 1.0 1.0
3.496959 -1.3988359 1.1189097 -0.09251869469881058 -0.052395012229681015 -0.9943315386772156 244.0 43.0 1.0 1.0
3.5400238 -1.3732949 1.127968 -0.09686826169490814 -0.029915636405348778 -0.9948475360870361 255.0 43.0 1.0 1.0
3.332998 -1.3363968 1.1710219 -0.09864974766969681 -0.05251448228955269 -0.9937356114387512 255.0 44.0 1.0 1.0
3.3291037 -1.2945747 1.164772 -0.14415083825588226 -0.05234994739294052 -0.9881700873374939 255.0 44.0 1.0 1.0
3.1198864 -1.2538611 1.1967859 -0.18061654269695282 0.020678123459219933 -0.9833362102508545 253.0 45.0 1.0 1.0
3.1784971 -1.238986 1.2141727 -0.32647904753685 0.01511935330927372 -0.945083498954773 255.0 45.0 1.0 1.0
2.9530225 -1.1901656 1.2296844 -0.11630506813526154 -0.03602918982505798 -0.9925597906112671 255.0 46.0 1.0 1.0
2.9722867 -1.1619514 1.2325214 -0.13968805968761444 -0.05974933132529259 -0.9883912801742554 255.0 46.0 1.0 1.0
2.8173974 -1.1381484 1.2693026 -0.16965441405773163 -0.05522644892334938 -0.9839549660682678 255.0 47.0 1.0 1.0
2.8257391 -1.1072899 1.2677181 -0.11644130200147629 -0.059682831168174744 -0.9914027452468872 255.0 47.0 1.0 1.0
2.9391603 -0.55604357 1.3487302 0.25437474250793457 -0.11245635896921158 -0.9605452418327332 250.0 48.0 1.0 1.0
2.9089403 -0.51887447 1.3322639 0.17710097134113312 -0.11444325000047684 -0.9775161743164062 232.0 48.0 1.0 1.0
2.7533269 -0.51775068 1.3578473 0.13605040311813354 -0.05632558837532997 -0.9890994429588318 241.0 49.0 1.0 1.0
2.7586114 -0.48894808 1.3578244 -0.2704811692237854 -0.031199926510453224 -0.9622195363044739 238.0 49.0 1.0 1.0
2.6107962 -0.4875131 1.3805425 -0.26257625222206116 -0.0537545382976532 -0.9634127020835876 241.0 50.0 1.0 1.0
2.6052868 -0.45835581 1.3749859 -0.2626904845237732 -0.04496525973081589 -0.9638318419456482 232.0 50.0 1.0 1.0
2.4860086 -0.46004614 1.4068646 -0.49384474754333496 -0.07990699261426926 -0.8658708333969116 255.0 51.0 1.0 1.0
2.5251341 -0.44006407 1.4262959 -0.5386366844177246 -0.04571603983640671 -0.8412969708442688 255.0 51.0 1.0 1.0
2.4052122 -0.44151399 1.4545438 -0.514488697052002 -0.10954058915376663 -0.8504717350006104 255.0 52.0 1.0 1.0
2.3826201 -0.41166833 1.4381636 0.001615995541214943 -0.08041360229253769 -0.9967603087425232 253.0 52.0 1.0 1.0
2.2801111 -0.4143084 1.471746 0.06047447770833969 -0.0678134486079216 -0.9958634972572327 255.0 53.0 1.0 1.0
2.2710273 -0.38818806 1.4631487 0.358102411031723 -0.06343232840299606 -0.9315251708030701 255.0 53.0 1.0 1.0
2.1193087 -0.38035798 1.4596291 0.3310423791408539 -0.06348589062690735 -0.9414778351783752 250.0 54.0 1.0 1.0
2.1297181 -0.35931051 1.4641016 -0.0406518392264843 -0.06637666374444962 -0.9969661235809326 255.0 54.0 1.0 1.0
2.0210433 -0.35823575 1.484764 -0.05762636661529541 -0.066888228058815 -0.9960949420928955 255.0 55.0 1.0 1.0
2.0087161 -0.33444372 1.4730238 -0.05762636661529541 -0.066888228058815 -0.9960949420928955 255.0 55.0 1.0 1.0
1.9005723 -0.33162093 1.4893332 -0.025426216423511505 -0.07422274351119995 -0.9969175457954407 253.0 56.0 1.0 1.0
1.9289474 -0.31587037 1.5088758 -0.15987466275691986 -0.011866772547364235 -0.9870660305023193 255.0 56.0 1.0 1.0
1.8019804 -0.30879104 1.5069464 -0.1564517468214035 -0.05239741504192352 -0.9862947463989258 253.0 57.0 1.0 1.0
1.8020827 -0.28947541 1.5043876 -0.13802212476730347 -0.05254296585917473 -0.9890344738960266 255.0 57.0 1.0 1.0
1.7118037 -0.28799388 1.5290154 -0.1686728596687317 -0.09491510689258575 -0.9810914993286133 255.0 58.0 1.0 1.0
1.7147399 -0.27011561 1.5290023 -0.1686728596687317 -0.09491510689258575 -0.9810914993286133 255.0 58.0 1.0 1.0
1.6116533 -0.26494738 1.5405982 -0.1203773245215416 -0.04299475997686386 -0.9917967915534973 250.0 59.0 1.0 1.0
1.6373547 -0.25167158 1.5625482 -0.11059021949768066 -0.043044038116931915 -0.9929335117340088 255.0 59.0 1.0 1.0
1.5221791 -0.2430298 1.5601635 -0.13777214288711548 -0.058385565876960754 -0.9887415766716003 255.0 60.0 1.0 1.0
1.5218753 -0.22672465 1.5573062 -0.11205797642469406 -0.09367889165878296 -0.9892761707305908 255.0 60.0 1.0 1.0
1.4207342 -0.21908133 1.5652472 -0.12127840518951416 -0.038658466190099716 -0.9918654561042786 255.0 61.0 1.0 1.0
1.4336733 -0.20580213 1.577024 -0.12118425220251083 -0.055175069719552994 -0.9910954236984253 255.0 61.0 1.0 1.0
1.3389764 -0.19846737 1.5913631 -0.13153395056724548 -0.059246454387903214 -0.989539623260498 255.0 62.0 1.0 1.0
1.3486944 -0.18556628 1.6004965 -0.12110866606235504 -0.059325795620679855 -0.9908648729324341 255.0 62.0 1.0 1.0
1.2568936 -0.1770011 1.6188889 -0.08161967992782593 -0.06197655573487282 -0.9947347044944763 255.0 63.0 1.0 1.0
1.2513546 -0.16293344 1.6094344 -0.08161967992782593 -0.06197655573487282 -0.9947347044944763 255.0 63.0 1.0 1.0
9.048934 -1.64136 -2.3699617 -0.0 -1.0 0.0 12.0 22.0 2.0 6.0
9.1590166 -1.6677499 -2.1429412 -0.6374860405921936 -0.756388247013092 0.14658905565738678 19.0 23.0 2.0 6.0
11.160144 -2.1843083 -0.81631476 -0.6511645317077637 -0.7577645778656006 0.04216191545128822 20.0 29.0 2.0 5.0
11.143182 -2.0600548 -0.81354403 -0.0954284816980362 -0.9857301115989685 -0.13867132365703583 21.0 29.0 2.0 5.0
22.116594 -4.333498 -1.0408821 -0.9038882255554199 -0.42621633410453796 -0.03640969842672348 19.0 30.0 2.0 6.0
11.202887 -2.0728872 -0.52601683 0.08870486915111542 -0.9958274960517883 0.021423153579235077 20.0 30.0 2.0 5.0
22.252502 -4.3636861 -0.46961966 -0.744766116142273 -0.6540930271148682 0.13223358988761902 18.0 31.0 2.0 6.0
11.188518 -2.0720143 -0.23549071 0.2987729012966156 -0.9424805641174316 -0.1498834788799286 19.0 31.0 2.0 5.0
6.7123952 -2.5739005 0.58840322 -0.017003100365400314 -0.9267849326133728 0.37520742416381836 19.0 35.0 2.0 5.0
21.514277 -8.5281534 3.0955751 0.15459488332271576 -0.9877443313598633 -0.021481864154338837 11.0 37.0 2.0 6.0
1.1908354 -0.57050782 -1.7447969 0.0780777633190155 -0.015596561133861542 0.9968252778053284 255.0 0.0 1.0 1.0
1.1814529 -0.5508129 -1.722483 0.0780777633190155 -0.015596561133861542 0.9968252778053284 255.0 0.0 1.0 1.0
1.3130163 -0.61796361 -1.7639554 0.14708508551120758 0.017407085746526718 0.9889706373214722 255.0 1.0 1.0 1.0
1.3078796 -0.59884024 -1.7485275 0.07624789327383041 0.007779305800795555 0.9970585107803345 255.0 1.0 1.0 1.0
1.4195906 -0.65863496 -1.761447 0.09008178859949112 0.0036863782443106174 0.9959275722503662 250.0 2.0 1.0 1.0
1.4336734 -0.6469754 -1.7704455 0.09008178859949112 0.0036863782443106174 0.9959275722503662 255.0 2.0 1.0 1.0
1.5615007 -0.7151323 -1.7949405 0.15262264013290405 0.022331539541482925 0.9880322217941284 255.0 3.0 1.0 1.0
1.5714331 -0.69982594 -1.797858 0.20884789526462555 -0.03579528257250786 0.9772928953170776 255.0 3.0 1.0 1.0
1.6942044 -0.76759642 -1.811406 0.10794254392385483 0.02288469672203064 0.9938936829566956 247.0 4.0 1.0 1.0
1.6916726 -0.74514318 -1.800267 0.14102478325366974 0.018360447138547897 0.9898358583450317 244.0 4.0 1.0 1.0
1.8416283 -0.82656538 -1.835474 0.12298799306154251 0.02774927020072937 0.9920201301574707 253.0 5.0 1.0 1.0
1.8447663 -0.80482125 -1.8301206 0.11819130927324295 0.027765560895204544 0.992602527141571 244.0 5.0 1.0 1.0
1.987991 -0.88466895 -1.8504212 0.09619594365358353 0.03955848142504692 0.9945760369300842 241.0 6.0 1.0 1.0
1.9999464 -0.86496991 -1.8530463 0.10947978496551514 0.05295615270733833 0.992577314376831 241.0 6.0 1.0 1.0
2.1668358 -0.95739418 -1.8866371 0.09390371292829514 -0.008782174438238144 0.995542585849762 241.0 7.0 1.0 1.0
2.1710002 -0.93213433 -1.8816867 0.15604551136493683 0.05431775376200676 0.9862552285194397 241.0 7.0 1.0 1.0
2.3421507 -1.0284258 -1.9100428 0.08273803442716599 0.0032907607965171337 0.9965658783912659 250.0 8.0 1.0 1.0
2.3616369 -1.0075742 -1.9172635 0.08273803442716599 0.0032907607965171337 0.9965658783912659 247.0 8.0 1.0 1.0
2.555831 -1.1152704 -1.9530069 0.06437090039253235 0.046801697462797165 0.9968279600143433 238.0 9.0 1.0 1.0
2.5462677 -1.0794371 -1.9369793 0.06437090039253235 0.046801697462797165 0.9968279600143433 238.0 9.0 1.0 1.0
2.7756507 -1.2059257 -1.9873189 0.1275993436574936 0.08299717307090759 0.988347053527832 229.0 10.0 1.0 1.0
2.7788939 -1.1728412 -1.980774 0.10997819155454636 0.058589767664670944 0.9922056198120117 217.0 10.0 1.0 1.0
3.0052109 -1.2993419 -2.0151227 0.10268101096153259 0.00726278917863965 0.9946878552436829 202.0 11.0 1.0 1.0
3.0374951 -1.2756732 -2.0277557 0.12787233293056488 0.0724586546421051 0.9891402125358582 223.0 11.0 1.0 1.0
3.292294 -1.4172541 -2.0647471 0.1484055370092392 0.03720288351178169 0.988226592540741 190.0 12.0 1.0 1.0
3.3069594 -1.3826498 -2.0648 0.10322143137454987 0.03741850703954697 0.9939543008804321 208.0 12.0 1.0 1.0
3.6118729 -1.5495172 -2.1179595 0.12416285276412964 0.03283030167222023 0.991718590259552 166.0 13.0 1.0 1.0
3.631155 -1.5129125 -2.1199157 0.11842404305934906 0.03285350278019905 0.9924194812774658 169.0 13.0 1.0 1.0
4.0082703 -1.7145333 -2.1941638 0.16080522537231445 0.08771273493766785 0.983081042766571 127.0 14.0 1.0 1.0
4.0260081 -1.6724111 -2.1942277 0.09481634944677353 0.03427597135305405 0.9949045181274414 148.0 14.0 1.0 1.0
4.4673433 -1.9052877 -2.2785661 0.17072343826293945 0.10349904745817184 0.9798681139945984 70.0 15.0 1.0 1.0
4.4736738 -1.8527989 -2.2718387 0.15151377022266388 0.07441198080778122 0.9856503009796143 94.0 15.0 1.0 1.0
4.8161912 -1.0012466 -2.1509817 0.12293755263090134 -0.9574542045593262 0.26108965277671814 196.0 16.0 1.0 1.0
4.7113638 -0.92801201 -2.0997219 0.05393539369106293 -0.9863580465316772 0.1555272340774536 124.0 16.0 1.0 1.0
5.8502975 -1.2227319 -2.4222624 -0.2779093086719513 -0.9605387449264526 -0.011477680876851082 30.0 17.0 1.0 5.0
4.8301349 -0.95656633 -1.995469 0.10387787222862244 -0.9923583269119263 0.06659019738435745 166.0 17.0 1.0 1.0
6.6770353 -1.4040389 -2.55266 0.8557242155075073 -0.45275938510894775 -0.2504895329475403 28.0 18.0 1.0 5.0
4.8397856 -0.96450287 -1.8460666 -0.04548433795571327 -0.9959538578987122 0.07750502973794937 196.0 18.0 1.0 1.0
7.8798385 -1.665603 -2.7699051 0.6222675442695618 -0.7498791813850403 -0.22464239597320557 27.0 19.0 1.0 1.0
4.88553 -0.97882891 -1.7133224 0.13732992112636566 -0.990071177482605 0.029990175738930702 241.0 19.0 1.0 1.0
4.9130969 -1.0423851 -1.5795085 0.4656553566455841 -0.8847631216049194 -0.01895333267748356 15.0 20.0 1.0 1.0
4.8788648 -0.98180026 -1.5651455 0.009866551496088505 -0.9971874356269836 0.07429632544517517 238.0 20.0 1.0 1.0
4.8081522 -1.0243572 -1.4053662 0.7002419233322144 -0.7078849673271179 0.09252113103866577 23.0 21.0 1.0 1.0
4.9279332 -0.9960435 -1.4373121 0.11802127212285995 -0.9913219809532166 0.05789370834827423 253.0 21.0 1.0 1.0
4.8986282 -1.0480031 -1.2904218 0.35963743925094604 -0.9330890774726868 0.0023581392597407103 112.0 22.0 1.0 1.0
4.9472976 -1.0043375 -1.3004508 0.3037298023700714 -0.9524027705192566 0.026022307574748993 255.0 22.0 1.0 1.0
4.9366646 -1.0596339 -1.1617244 0.10880666971206665 -0.9936189651489258 0.029706895351409912 208.0 23.0 1.0 1.0
4.939858 -1.0062996 -1.1599747 0.14072832465171814 -0.9900315403938293 0.005759419407695532 253.0 23.0 1.0 1.0
4.9868588 -1.0730305 -1.0355569 0.022709710523486137 -0.9953147768974304 0.09398321807384491 253.0 24.0 1.0 1.0
4.9901485 -1.0191619 -1.0340099 0.21056565642356873 -0.9771803021430969 -0.027945687994360924 255.0 24.0 1.0 1.0
5.0030174 -1.0800449 -0.901564 0.15673595666885376 -0.9824868440628052 0.10076336562633514 255.0 25.0 1.0 1.0
4.9716134 -1.0188718 -0.89397103 0.330622136592865 -0.938532292842865 0.09922796487808228 255.0 25.0 1.0 1.0
5.0236034 -1.087126 -0.76891655 0.05558059364557266 -0.9983797669410706 0.012187255546450615 253.0 26.0 1.0 1.0
5.0075974 -1.0288714 -0.76481646 0.24012155830860138 -0.9676612615585327 0.07728734612464905 255.0 26.0 1.0 1.0
5.0485997 -1.0942668 -0.63817704 0.10861901193857193 -0.9928750395774841 0.04900100454688072 255.0 27.0 1.0 1.0
5.0053577 -1.0301172 -0.63135046 0.045703910291194916 -0.9989364743232727 -0.006097023840993643 247.0 27.0 1.0 2.0
5.0546365 -1.0982277 -0.50451404 0.1815596967935562 -0.9833623766899109 0.0058847409673035145 253.0 28.0 1.0 1.0
5.0346789 -1.0387924 -0.50145042 -0.31393179297447205 -0.9476299285888672 0.058689530938863754 250.0 28.0 1.0 1.0
5.0576682 -1.0996914 -0.37110916 0.2670128345489502 -0.9635895490646362 0.014117371290922165 253.0 29.0 1.0 1.0
5.0532875 -1.0434407 -0.37000975 -0.49624162912368774 -0.8658913373947144 0.06305846571922302 235.0 29.0 1.0 2.0
5.053411 -1.0995691 -0.23831661 0.46487677097320557 -0.8852333426475525 -0.015861647203564644 241.0 30.0 1.0 1.0
5.0255284 -1.0385026 -0.23651755 -0.7465693354606628 -0.6649250984191895 0.022558894008398056 199.0 30.0 1.0 2.0
5.0927105 -1.1089417 -0.10742491 0.24436695873737335 -0.9637048840522766 0.10750721395015717 255.0 31.0 1.0 1.0
5.0688095 -1.0482651 -0.10672638 -0.379686564207077 -0.8760240077972412 0.2973549962043762 154.0 31.0 1.0 2.0
5.1687198 -2.1676314 0.029591877 0.022587521001696587 -0.9782017469406128 0.2064245194196701 232.0 32.0 1.0 1.0
5.1615109 -2.1013286 0.029345267 -0.08566633611917496 -0.9869866371154785 0.13608333468437195 235.0 32.0 1.0 1.0
5.1103892 -2.1450357 0.17043108 -0.05253377556800842 -0.6144518256187439 -0.7872033715248108 61.0 33.0 1.0 2.0
5.1251774 -2.0884044 0.17010593 -0.12034037709236145 -0.6247637271881104 -0.7714845538139343 205.0 33.0 1.0 2.0
5.0897131 -2.1371827 0.31066909 -0.20094019174575806 -0.8830715417861938 -0.4240373373031616 61.0 34.0 1.0 2.0
5.1340127 -2.0928433 0.31193575 -0.0599333755671978 -0.9935970306396484 -0.09577538073062897 220.0 34.0 1.0 2.0
6.6833215 -2.8065481 0.59363949 -0.826411247253418 -0.5406644940376282 -0.15724630653858185 22.0 35.0 1.0 5.0
6.6938992 -2.7289135 0.59190369 0.055344656109809875 -0.85318922996521 -0.5186571478843689 24.0 35.0 1.0 5.0
5.599617 -2.3553338 0.81304055 -0.00039591200766153634 -0.9770714640617371 -0.21291100978851318 29.0 37.0 1.0 5.0
5.5946259 -2.2846098 0.8087101 0.061981603503227234 -0.989861249923706 -0.12780079245567322 30.0 37.0 1.0 5.0
4.9004617 -2.0638669 0.85087103 -0.1463860273361206 -0.6655333638191223 -0.7318717837333679 136.0 38.0 1.0 1.0
4.8998842 -2.0035033 0.8470037 -0.15590251982212067 -0.687919557094574 -0.7088448405265808 94.0 38.0 1.0 1.0
4.5407476 -1.9148563 0.91924965 -0.2002694457769394 -0.19641032814979553 -0.9598516225814819 172.0 39.0 1.0 1.0
4.5823946 -1.876191 0.92357743 -0.3002743422985077 -0.0900006964802742 -0.9495974183082581 115.0 39.0 1.0 1.0
4.2572351 -1.796761 0.9865163 -0.07707229256629944 -0.5352960228919983 -0.8411409258842468 205.0 40.0 1.0 1.0
4.2685909 -1.7491589 0.98477966 -0.13384532928466797 -0.12501069903373718 -0.9830858707427979 193.0 40.0 1.0 1.0
4.1378121 -1.7495296 1.0822862 -0.11617159098386765 -0.013431507162749767 -0.993138313293457 244.0 41.0 1.0 1.0
4.1739039 -1.7135428 1.0869038 -0.11556331068277359 -0.31562942266464233 -0.9418190717697144 250.0 41.0 1.0 1.0
3.7145872 -1.57331 1.0834917 -0.11458171904087067 -0.05611442029476166 -0.991827666759491 255.0 42.0 1.0 1.0
3.7308717 -1.5343741 1.083433 -0.117392398416996 -0.05609588325023651 -0.9915000796318054 255.0 42.0 1.0 1.0
3.4880219 -1.4806764 1.1258905 -0.14513684809207916 -0.06279036402702332 -0.9874171614646912 255.0 43.0 1.0 1.0
3.4785373 -1.4338815 1.1178621 -0.1279541552066803 -0.08809150755405426 -0.9878601431846619 247.0 43.0 1.0 1.0
3.2762396 -1.3938943 1.1612406 -0.12391418218612671 -0.048564810305833817 -0.9911037683486938 255.0 44.0 1.0 1.0
3.3082409 -1.3668288 1.167389 -0.11188242584466934 -0.04863472655415535 -0.9925305843353271 255.0 44.0 1.0 1.0
3.0928934 -1.318833 1.1969166 -0.07868324220180511 -0.06973188370466232 -0.9944579005241394 255.0 45.0 1.0 1.0
3.0891423 -1.2792091 1.1901613 -0.056236471980810165 -0.15576083958148956 -0.9861927032470703 250.0 45.0 1.0 1.0
2.9068184 -1.2428435 1.221161 -0.07250038534402847 -0.014759283512830734 -0.9972591400146484 255.0 46.0 1.0 1.0
2.9334691 -1.2181191 1.2268792 -0.07688581198453903 -0.014754422940313816 -0.996930718421936 255.0 46.0 1.0 1.0
2.7861094 -1.1938945 1.266337 -0.11804790794849396 -0.06956391036510468 -0.9905683398246765 255.0 47.0 1.0 1.0
2.7814379 -1.1576095 1.2585837 -0.16974791884422302 -0.044168367981910706 -0.9844971895217896 255.0 47.0 1.0 1.0
2.9161184 -0.61511093 1.3438808 -0.4951806366443634 -0.03970075026154518 -0.8678824305534363 255.0 48.0 1.0 1.0
2.9402897 -0.58818126 1.3520757 -0.3358725905418396 -0.035927243530750275 -0.9412219524383545 255.0 48.0 1.0 1.0
2.7840991 -0.58408278 1.3788625 -0.341732919216156 -0.028997046872973442 -0.9393497705459595 255.0 49.0 1.0 1.0
2.7583067 -0.54862118 1.3631347 0.2593752145767212 -0.054908476769924164 -0.9642144441604614 241.0 49.0 1.0 1.0
2.6069114 -0.54342985 1.3843062 0.26789867877960205 -0.056290242820978165 -0.961801290512085 244.0 50.0 1.0 1.0
2.6020291 -0.51409119 1.3787476 0.14956068992614746 -0.05508272349834442 -0.9872170686721802 244.0 50.0 1.0 1.0
2.4620891 -0.50906408 1.3991532 0.11686816066503525 -0.07946987450122833 -0.9899628758430481 247.0 51.0 1.0 1.0
2.4638693 -0.48263928 1.3971859 -0.23656131327152252 -0.0753781870007515 -0.9686882495880127 238.0 51.0 1.0 1.0
2.3482485 -0.48197794 1.4259783 -0.3272530436515808 -0.047501061111688614 -0.9437420964241028 253.0 52.0 1.0 1.0
2.3700514 -0.4607091 1.4361832 -0.514488697052002 -0.10954058915376663 -0.8504717350006104 255.0 52.0 1.0 1.0
2.2642665 -0.46050787 1.4675196 -0.4857111871242523 -0.06164904311299324 -0.8719426393508911 255.0 53.0 1.0 1.0
2.2689788 -0.43683267 1.4674997 -0.5204834342002869 0.022765398025512695 -0.8535682559013367 255.0 53.0 1.0 1.0
2.1367893 -0.42978385 1.4776468 0.013865632936358452 -0.06870406121015549 -0.9975407123565674 255.0 54.0 1.0 1.0
2.1639507 -0.4117904 1.4933424 0.013865632936358452 -0.06870406121015549 -0.9975407123565674 255.0 54.0 1.0 1.0
2.03847 -0.40544176 1.5035784 0.39506539702415466 -0.015937035903334618 -0.9185147285461426 255.0 55.0 1.0 1.0
1.9884831 -0.37392199 1.4636978 0.35380932688713074 -0.0506211593747139 -0.9339467883110046 253.0 55.0 1.0 1.0
1.890053 -0.37062556 1.4869399 0.3291497826576233 -0.053221262991428375 -0.9427766799926758 253.0 56.0 1.0 1.0
1.9125202 -0.35434696 1.5015925 -0.025456039234995842 -0.05634361878037453 -0.9980868697166443 255.0 56.0 1.0 1.0
1.7920372 -0.34575921 1.50445 -0.012769092805683613 -0.06490395963191986 -0.997809886932373 255.0 57.0 1.0 1.0
1.7986095 -0.32759157 1.5069796 -0.16777469217777252 -0.06398918479681015 -0.9837464690208435 255.0 57.0 1.0 1.0
1.7053454 -0.32366285 1.529061 -0.12315081059932709 -0.08687154203653336 -0.9885784387588501 255.0 58.0 1.0 1.0
1.711609 -0.30638102 1.5316913 -0.12315081059932709 -0.08687154203653336 -0.9885784387588501 255.0 58.0 1.0 1.0
1.6028398 -0.29798907 1.5378952 -0.1459801197052002 -0.06898114085197449 -0.9868797063827515 255.0 59.0 1.0 1.0
1.6230775 -0.28427529 1.554354 -0.1203773245215416 -0.04299475997686386 -0.9917967915534973 255.0 59.0 1.0 1.0
1.5084082 -0.27322572 1.5516645 -0.16161185503005981 -0.058172792196273804 -0.9851383566856384 253.0 60.0 1.0 1.0
1.5278226 -0.26032409 1.5687292 -0.13777214288711548 -0.058385565876960754 -0.9887415766716003 255.0 60.0 1.0 1.0
1.4291006 -0.25101697 1.5800178 -0.16007044911384583 -0.038443755358457565 -0.9863566160202026 255.0 61.0 1.0 1.0
1.4316652 -0.23610273 1.5800065 -0.16007044911384583 -0.038443755358457565 -0.9863566160202026 255.0 61.0 1.0 1.0
1.3242588 -0.22460119 1.5792059 -0.1939314603805542 -0.12283047288656235 -0.9732950329780579 255.0 62.0 1.0 1.0
1.3367854 -0.21242122 1.5913863 -0.1939314603805542 -0.12283047288656235 -0.9732950329780579 255.0 62.0 1.0 1.0
1.2552933 -0.20355754 1.6220684 -0.11635209619998932 -0.07132857292890549 -0.9906435012817383 255.0 63.0 1.0 1.0
1.2549318 -0.19009554 1.6189102 -0.09113167971372604 -0.07151750475168228 -0.9932675361633301 255.0 63.0 1.0 1.0
8.361742 -1.7749668 -2.6888206 0.4656553566455841 -0.8847631216049194 -0.01895333267748356 37.0 20.0 2.0 1.0
8.9642305 -1.9109017 -2.6208622 0.7002419233322144 -0.7078849673271179 0.09252113103866577 20.0 21.0 2.0 1.0
9.1330481 -1.9550172 -2.406563 0.35963743925094604 -0.9330890774726868 0.0023581392597407103 19.0 22.0 2.0 1.0
9.2469244 -1.9859354 -2.1767008 0.10880666971206665 -0.9936189651489258 0.029706895351409912 11.0 23.0 2.0 1.0
21.356436 -8.9874601 3.1001921 -0.00039591200766153634 -0.9770714640617371 -0.21291100978851318 14.0 37.0 2.0 6.0
21.614548 -8.8309288 3.1237233 0.061981603503227234 -0.989861249923706 -0.12780079245567322 25.0 37.0 2.0 6.0
1.1678644 -0.5899595 -1.7287898 0.12720824778079987 0.00443990295752883 0.9918660521507263 255.0 0.0 1.0 1.0
1.1804742 -0.5808602 -1.7383828 0.18259184062480927 0.061132997274398804 0.9812864065170288 255.0 0.0 1.0 1.0
1.2975117 -0.64428461 -1.7608058 0.14708508551120758 0.017407085746526718 0.9889706373214722 255.0 1.0 1.0 1.0
1.2996213 -0.62840521 -1.7546492 0.14708508551120758 0.017407085746526718 0.9889706373214722 255.0 1.0 1.0 1.0
1.4221716 -0.69650275 -1.782322 0.11915809661149979 0.013722497038543224 0.9927803874015808 255.0 2.0 1.0 1.0
1.4222047 -0.67809486 -1.7733734 0.0900738537311554 0.013764787465333939 0.9958399534225464 255.0 2.0 1.0 1.0
1.5461806 -0.74777108 -1.7948705 0.08435100317001343 0.022515736520290375 0.9961817860603333 253.0 3.0 1.0 1.0
1.5564317 -0.73267615 -1.7977889 0.08435100317001343 0.022515736520290375 0.9961817860603333 255.0 3.0 1.0 1.0
1.6855055 -0.80672044 -1.8197057 0.12861202657222748 0.02282802015542984 0.991432249546051 255.0 4.0 1.0 1.0
1.6834831 -0.78413677 -1.808568 0.10794254392385483 0.02288469672203064 0.9938936829566956 247.0 4.0 1.0 1.0
1.8265857 -0.86631936 -1.8380843 0.10343898087739944 0.038689594715833664 0.9938830733299255 247.0 5.0 1.0 1.0
1.8382481 -0.84834242 -1.8408079 0.10328377783298492 0.06701695173978806 0.9923917055130005 250.0 5.0 1.0 1.0
1.985562 -0.93399841 -1.8658864 0.08737209439277649 -0.020563729107379913 0.9959635138511658 244.0 6.0 1.0 1.0
1.9952389 -0.91311049 -1.8659205 0.08732205629348755 0.0395909808576107 0.9953930974006653 250.0 6.0 1.0 1.0
2.163311 -1.0106192 -1.9014982 0.042612724006175995 -0.008813140913844109 0.999052882194519 255.0 7.0 1.0 1.0
2.1595442 -0.98138499 -1.8890711 0.042612724006175995 -0.008813140913844109 0.999052882194519 238.0 7.0 1.0 1.0
2.3230047 -1.0787054 -1.9123338 0.15791696310043335 0.07184351235628128 0.9848354458808899 235.0 8.0 1.0 1.0
2.3487766 -1.0608779 -1.9243437 0.15791696310043335 0.07184351235628128 0.9848354458808899 255.0 8.0 1.0 1.0
2.5348876 -1.1700325 -1.9551903 0.14666059613227844 0.10466253757476807 0.983634352684021 238.0 9.0 1.0 1.0
2.5320668 -1.1366611 -1.943756 0.1771659404039383 0.10413361340761185 0.9786564111709595 232.0 9.0 1.0 1.0
2.7467504 -1.2625026 -1.985001 0.089420385658741 0.03876623511314392 0.9952393174171448 220.0 10.0 1.0 1.0
2.7720306 -1.2390846 -1.9938327 0.12046030163764954 0.07006045430898666 0.9902428388595581 229.0 10.0 1.0 1.0
3.0021148 -1.3734528 -2.0317695 0.10502415895462036 0.01456232275813818 0.994363009929657 211.0 11.0 1.0 1.0
3.0132258 -1.340505 -2.0297225 0.09780247509479523 0.007266377564519644 0.9951793551445007 211.0 11.0 1.0 1.0
3.2839651 -1.4960753 -2.0785837 0.05455811694264412 0.05709528177976608 0.9968768954277039 205.0 12.0 1.0 1.0
3.2899518 -1.4573385 -2.0726469 0.15686137974262238 -0.0383402481675148 0.9868761897087097 199.0 12.0 1.0 1.0
3.601069 -1.6351383 -2.131089 0.13590189814567566 0.06512241810560226 0.9885796904563904 172.0 13.0 1.0 1.0
3.6115577 -1.5944403 -2.1273527 0.11163894832134247 0.04935635253787041 0.9925222992897034 178.0 13.0 1.0 1.0
3.9812484 -1.8026518 -2.1993856 0.10105780512094498 0.018770897760987282 0.9947034120559692 121.0 14.0 1.0 1.0
3.9901032 -1.7564858 -2.1940553 0.1452246904373169 0.12165654450654984 0.9818906784057617 124.0 14.0 1.0 1.0
4.4495635 -2.0089989 -2.2902672 0.07295180857181549 0.06964282691478729 0.9949009418487549 88.0 15.0 1.0 1.0
4.4537845 -1.9549545 -2.2818439 0.17988266050815582 -0.04529821500182152 0.9826444983482361 79.0 15.0 1.0 1.0
4.8263121 -1.1094145 -2.165266 -0.02416675165295601 -0.9513148665428162 0.3072720170021057 175.0 16.0 1.0 1.0
4.8126106 -1.0532694 -2.1540904 0.02386041358113289 -0.9609028100967407 0.275856077671051 187.0 16.0 1.0 1.0
5.8848124 -1.3593265 -2.4476357 -0.259941965341568 -0.9533222317695618 0.15364521741867065 29.0 17.0 1.0 5.0
5.8371844 -1.2840142 -2.4221437 -0.24695974588394165 -0.9519378542900085 0.18117742240428925 28.0 17.0 1.0 5.0
6.7191548 -1.560689 -2.5804987 -0.03087354265153408 -0.9862391948699951 0.1624159812927246 29.0 18.0 1.0 5.0
6.7095294 -1.4845059 -2.5707498 -0.06462185084819794 -0.9945082068443298 0.08232554793357849 28.0 18.0 1.0 5.0
7.9132233 -1.846782 -2.7943895 0.019332706928253174 -0.9998100399971008 -0.0024501290172338486 30.0 19.0 1.0 6.0
7.8582878 -1.7473104 -2.7684426 0.015401308424770832 -0.9993129372596741 0.03371207043528557 28.0 19.0 1.0 6.0
8.3375959 -1.9533331 -2.6934168 -0.10872738808393478 -0.9527215361595154 -0.2837253510951996 28.0 20.0 1.0 6.0
8.3613195 -1.8666786 -2.6946983 -0.11597468703985214 -0.9910005331039429 0.06684167683124542 40.0 20.0 1.0 6.0
8.9297333 -2.1001298 -2.6228409 -0.45990556478500366 -0.8879339694976807 -0.007748202886432409 28.0 21.0 1.0 6.0
8.9732399 -2.118392 -2.3753905 -0.305265337228775 -0.9513528943061829 -0.04172361269593239 27.0 22.0 1.0 6.0
8.9835987 -2.0216978 -2.3724835 0.5608327388763428 -0.8099026083946228 -0.17182648181915283 25.0 22.0 1.0 6.0
9.0705442 -2.1478233 -2.1450646 -0.2986961305141449 -0.9420444369316101 0.15275122225284576 29.0 23.0 1.0 6.0
9.2142153 -2.0801535 -2.1738696 0.2911020815372467 -0.9557491540908813 -0.04246324673295021 32.0 23.0 1.0 6.0
4.9632792 -1.1772888 -1.0354062 -0.1518794596195221 -0.986725389957428 -0.05749596655368805 23.0 24.0 1.0 2.0
4.9600501 -1.1217697 -1.0322697 0.14234142005443573 -0.9895129203796387 -0.024559076875448227 23.0 24.0 1.0 2.0
5.0099416 -1.1919338 -0.90696698 0.05706273391842842 -0.9843263030052185 -0.1668703258037567 26.0 25.0 1.0 2.0
4.9991078 -1.1341568 -0.90285021 0.3901711702346802 -0.9206981658935547 -0.009021919220685959 26.0 25.0 1.0 2.0
21.806999 -5.20402 -3.3554323 0.07703997194766998 -0.9911924600601196 0.10771408677101135 19.0 26.0 1.0 6.0
4.9232178 -1.1195074 -0.75519246 0.4612785279750824 -0.8867024779319763 -0.03131985664367676 26.0 26.0 1.0 2.0
21.912563 -5.236742 -2.7847102 0.23306533694267273 -0.9659067392349243 -0.11271548271179199 20.0 27.0 1.0 6.0
5.0097589 -1.1409246 -0.63463777 0.25393953919410706 -0.9664703011512756 -0.038077641278505325 133.0 27.0 1.0 1.0
11.054597 -2.6470628 -1.1090873 0.3300716280937195 -0.9438687562942505 0.012829439714550972 16.0 28.0 1.0 5.0
5.0312028 -1.1484604 -0.50324428 0.08427520841360092 -0.9941654801368713 0.0673256441950798 214.0 28.0 1.0 1.0
11.07824 -2.6544888 -0.81714255 0.518539309501648 -0.8550346493721008 0.00571785680949688 22.0 29.0 1.0 5.0
5.0691957 -1.1579489 -0.37272385 0.1212991401553154 -0.9909719824790955 0.05710549280047417 244.0 29.0 1.0 1.0
5.0836449 -1.2182148 -0.24074508 0.46819788217544556 -0.8836107850074768 -0.004774849396198988 11.0 30.0 1.0 2.0
5.0844474 -1.162246 -0.24024196 0.18942144513130188 -0.9810974597930908 0.039589591324329376 247.0 30.0 1.0 1.0
5.0605636 -1.2134839 -0.10710475 0.30150285363197327 -0.9517881870269775 -0.05652682110667229 29.0 31.0 1.0 1.0
5.1041889 -1.1675775 -0.10781669 0.022619914263486862 -0.9997364282608032 0.003932873252779245 255.0 31.0 1.0 1.0
5.1623626 -2.2932639 0.03004507 -0.01908744126558304 -0.9975894093513489 0.06671527028083801 232.0 32.0 1.0 1.0
5.1677437 -2.231163 0.029856319 -0.009353101253509521 -0.991901695728302 0.1266632080078125 235.0 32.0 1.0 1.0
7.8514686 -3.4915988 0.26432908 0.06705649942159653 -0.7204149961471558 0.6902938485145569 25.0 33.0 1.0 5.0
5.098629 -2.2031951 0.17093687 0.3986137807369232 -0.5672411322593689 -0.7206555604934692 43.0 33.0 1.0 2.0
6.9629779 -3.0974512 0.42903084 -0.048031456768512726 -0.9796174764633179 -0.19504500925540924 11.0 34.0 1.0 5.0
5.1403341 -2.2220731 0.31529716 0.0863608717918396 -0.9655507206916809 -0.2454659640789032 109.0 34.0 1.0 2.0
6.6813097 -2.971792 0.59915125 0.45242002606391907 -0.87750244140625 -0.15907713770866394 19.0 35.0 1.0 5.0
5.1203933 -2.2132261 0.45707235 -0.46837180852890015 -0.8698254823684692 0.15502120554447174 25.0 35.0 1.0 2.0
5.1803088 -2.2410629 0.60808176 0.05959148332476616 -0.986019492149353 -0.15560998022556305 24.0 36.0 1.0 2.0
5.4258952 -2.417145 0.79524404 -0.05599029362201691 -0.9702542424201965 -0.23552459478378296 36.0 37.0 1.0 5.0
5.3999915 -2.3381667 0.78772831 -0.04465712606906891 -0.973236083984375 -0.22542712092399597 37.0 37.0 1.0 5.0
4.8525109 -2.1643684 0.85045081 -0.11051379144191742 -0.22649522125720978 -0.9677224159240723 127.0 38.0 1.0 1.0
4.8821688 -2.1166213 0.85163504 -0.10462535917758942 -0.6655391454696655 -0.7389934062957764 145.0 38.0 1.0 1.0
4.4924226 -2.0062528 0.91797906 -0.0955844298005104 -0.2185308039188385 -0.9711374044418335 196.0 39.0 1.0 1.0
4.520411 -1.9622767 0.91937202 -0.14113329350948334 -0.08195728063583374 -0.9865922331809998 190.0 39.0 1.0 1.0
4.2471914 -1.8982283 0.99338078 -0.08143873512744904 -0.9741352200508118 -0.21078044176101685 232.0 40.0 1.0 1.0
4.2596745 -1.8505747 0.99164104 -0.12937626242637634 -0.9341416954994202 -0.3326277434825897 229.0 40.0 1.0 1.0
3.8340583 -1.7164564 1.0122068 -0.14567211270332336 -0.10628019273281097 -0.9836077094078064 35.0 41.0 1.0 1.0
4.1263576 -1.7958395 1.0842712 -0.12490519136190414 -0.1065848246216774 -0.9864270091056824 250.0 41.0 1.0 1.0
3.6913474 -1.6554213 1.0867648 -0.14733891189098358 -0.06639151275157928 -0.9868553280830383 255.0 42.0 1.0 1.0
3.6766269 -1.6028193 1.0773669 -0.1218356266617775 -0.07233808934688568 -0.9899107217788696 255.0 42.0 1.0 1.0
3.4352176 -1.5438753 1.1192061 -0.09841857105493546 -0.059328243136405945 -0.9933750629425049 253.0 43.0 1.0 1.0
3.4547226 -1.5094041 1.1202885 -0.13110147416591644 -0.061014533042907715 -0.9894895553588867 247.0 43.0 1.0 1.0
3.2358799 -1.4574232 1.1576616 -0.11354102194309235 -0.08284835517406464 -0.990073025226593 255.0 44.0 1.0 1.0
3.264909 -1.4296163 1.1625688 -0.13017384707927704 -0.08267807215452194 -0.9880379438400269 255.0 44.0 1.0 1.0
3.0508099 -1.3770185 1.1916847 -0.159060537815094 -0.0624990351498127 -0.9852885603904724 255.0 45.0 1.0 1.0
3.0892262 -1.3556582 1.2010239 -0.07703281939029694 -0.08603610098361969 -0.993309497833252 255.0 45.0 1.0 1.0
2.8733053 -1.3002734 1.2184045 -0.11718224734067917 -0.055254798382520676 -0.9915721416473389 255.0 46.0 1.0 1.0
2.8936064 -1.2731754 1.2212392 -0.11723620444536209 -0.0462038479745388 -0.9920286536216736 255.0 46.0 1.0 1.0
2.7335598 -1.2396761 1.254122 -0.11429517716169357 -0.08005679398775101 -0.9902158975601196 255.0 47.0 1.0 1.0
2.7801692 -1.2259448 1.269496 -0.1143851950764656 -0.06959392130374908 -0.9909957647323608 255.0 47.0 1.0 1.0
2.8457315 -0.66268933 1.3176568 -0.14815768599510193 0.027700060978531837 -0.98857581615448 253.0 48.0 1.0 1.0
2.8632069 -0.63528359 1.3225623 -0.48297086358070374 -0.05403043329715729 -0.8739677667617798 255.0 48.0 1.0 1.0
2.7256269 -0.63157362 1.3562614 -0.5022204518318176 -0.04209866374731064 -0.8637142181396484 255.0 49.0 1.0 1.0
2.7637346 -0.61005074 1.3719388 -0.341732919216156 -0.028997046872973442 -0.9393497705459595 255.0 49.0 1.0 1.0
2.6156571 -0.60259134 1.3954542 -0.4181925058364868 -0.0146923353895545 -0.9082396626472473 255.0 50.0 1.0 1.0
2.6287704 -0.57675058 1.3991194 0.26910850405693054 -0.053580041974782944 -0.9616182446479797 255.0 50.0 1.0 1.0
2.4849052 -0.56821626 1.4186794 0.3050804138183594 -0.10095882415771484 -0.9469600319862366 253.0 51.0 1.0 1.0
2.4634151 -0.53626239 1.4030926 0.11697306483983994 -0.06731101870536804 -0.9908515214920044 253.0 51.0 1.0 1.0
2.3275335 -0.52865255 1.4199109 0.17625951766967773 -0.08867204189300537 -0.9803416728973389 250.0 52.0 1.0 1.0
2.3161578 -0.50066948 1.4096626 -0.32651108503341675 -0.08231236040592194 -0.9416024684906006 244.0 52.0 1.0 1.0
2.2079673 -0.49730349 1.437557 -0.27528494596481323 -0.12123742699623108 -0.9536874294281006 255.0 53.0 1.0 1.0
2.2031648 -0.47208729 1.4311014 -0.48383840918540955 -0.05193616822361946 -0.8736149072647095 244.0 53.0 1.0 1.0
2.1078839 -0.46999303 1.4642383 -0.49846920371055603 -0.0559522844851017 -0.8650998473167419 253.0 54.0 1.0 1.0
2.1321332 -0.45208597 1.4776884 -0.4552243947982788 -0.05736991763114929 -0.8885266184806824 255.0 54.0 1.0 1.0
2.0326447 -0.4486295 1.5059819 -0.5034200549125671 -0.005484725348651409 -0.8640245199203491 255.0 55.0 1.0 1.0
2.0309029 -0.4260473 1.501273 0.02676081657409668 -0.01734205335378647 -0.9994915127754211 255.0 55.0 1.0 1.0
1.9189392 -0.4181245 1.5163325 -0.011412006802856922 -0.04854121431708336 -0.9987559914588928 255.0 56.0 1.0 1.0
1.9046284 -0.39420784 1.5016456 0.3291497826576233 -0.053221262991428375 -0.9427766799926758 253.0 56.0 1.0 1.0
1.7873685 -0.38374773 1.5070454 0.2992840111255646 -0.032943643629550934 -0.9535951614379883 253.0 57.0 1.0 1.0
1.7852563 -0.36383542 1.5019394 -0.012769092805683613 -0.06490395963191986 -0.997809886932373 255.0 57.0 1.0 1.0
1.6981413 -0.35918921 1.5291086 -0.012746958993375301 -0.08753076195716858 -0.9960802793502808 255.0 58.0 1.0 1.0
1.6900561 -0.33908021 1.5185148 -0.012746958993375301 -0.08753076195716858 -0.9960802793502808 250.0 58.0 1.0 1.0
1.5990437 -0.33196694 1.5406848 -0.1444654017686844 -0.06899663805961609 -0.9871013760566711 255.0 59.0 1.0 1.0
1.6081543 -0.31639451 1.5461615 -0.1444654017686844 -0.06899663805961609 -0.9871013760566711 255.0 59.0 1.0 1.0
