ply
format ascii 1.0
element vertex 435
property float x
property float y
property float z
property float nx
property float ny
property float nz
property float intensity
property float ring
property float return
property float label
end_header
1.2012184 0.92496157 1.7900394 -0.08217605203390121 -0.06370913982391357 -0.9945794343948364 255.0 62.0 1.0 1.0
1.2129294 0.913957 1.7930672 -0.08217605203390121 -0.06370913982391357 -0.9945794343948364 255.0 62.0 1.0 1.0
1.1085247 0.86566299 1.80172 -0.15617404878139496 -0.7734530568122864 -0.6143128275871277 255.0 63.0 1.0 1.0
1.1195107 0.85557139 1.8048503 -0.15617404878139496 -0.7734530568122864 -0.6143128275871277 255.0 63.0 1.0 1.0
1.1333661 0.41742262 -1.5866628 0.12003305554389954 -0.016007378697395325 0.9926407933235168 255.0 0.0 1.0 1.0
1.1244246 0.42751902 -1.5802712 0.12003305554389954 -0.016007378697395325 0.9926407933235168 255.0 0.0 1.0 1.0
1.2232434 0.45996571 -1.5796397 0.13244208693504333 0.009018131531774998 0.9911497235298157 255.0 1.0 1.0 1.0
1.2302274 0.47735393 -1.5950457 0.17185956239700317 0.049340277910232544 0.9838850498199463 255.0 1.0 1.0 1.0
1.3256278 0.50666016 -1.5887064 0.11472999304533005 -0.03199588134884834 0.9928813576698303 190.0 2.0 1.0 1.0
1.3128368 0.5175522 -1.5797246 0.11478716880083084 0.005266719963401556 0.9933761358261108 232.0 2.0 1.0 1.0
1.5419967 0.60512853 -1.6048857 0.19398991763591766 0.027602585032582283 0.9806151390075684 217.0 4.0 1.0 1.0
1.5355853 0.62122142 -1.6048591 0.19398991763591766 0.027602585032582283 0.9806151390075684 169.0 4.0 1.0 1.0
1.6644887 0.6599192 -1.6198149 0.02908647432923317 -0.003973919898271561 0.9995689988136292 255.0 5.0 1.0 1.0
1.6383028 0.66941881 -1.6009816 0.15561316907405853 0.014791589230298996 0.9877073168754578 255.0 5.0 1.0 1.0
1.7822615 0.71309 -1.6242301 0.11647588759660721 0.028590060770511627 0.9927819967269897 255.0 6.0 1.0 1.0
1.7634286 0.72702712 -1.6138536 0.127498060464859 0.03976629301905632 0.991041362285614 255.0 6.0 1.0 1.0
1.8977137 0.76503283 -1.6213727 0.11735724657773972 0.035578664392232895 0.9924522042274475 255.0 7.0 1.0 1.0
1.8896084 0.78484219 -1.6213398 0.17687788605690002 0.09616463631391525 0.9795235991477966 255.0 7.0 1.0 1.0
2.0370562 0.82658958 -1.6332933 0.11723081767559052 0.011645491234958172 0.9930363893508911 255.0 8.0 1.0 1.0
2.0135019 0.84165031 -1.6213181 0.13731634616851807 0.07209107279777527 0.9879003763198853 255.0 8.0 1.0 1.0
2.1713586 0.88681656 -1.6344041 0.15120594203472137 0.10738062113523483 0.9826526641845703 247.0 9.0 1.0 1.0
2.1861408 0.91968566 -1.6526794 0.08102620393037796 0.036603737622499466 0.996039628982544 255.0 9.0 1.0 1.0
2.3350184 0.95795071 -1.6489835 0.13078473508358002 0.06477174162864685 0.9892926216125488 253.0 10.0 1.0 1.0
2.3187048 0.97971749 -1.6445628 0.06950906664133072 0.0029432836454361677 0.9975770115852356 250.0 10.0 1.0 1.0
2.500042 1.0307499 -1.655826 0.05950792878866196 0.017264047637581825 0.9980785250663757 238.0 11.0 1.0 1.0
2.4859838 1.055517 -1.6536915 0.1641412079334259 0.025121375918388367 0.986116886138916 250.0 11.0 1.0 1.0
2.6861682 1.1124293 -1.6660317 0.07136890292167664 0.0688333511352539 0.9950721263885498 247.0 12.0 1.0 1.0
2.6775727 1.1418405 -1.6679751 0.09587425738573074 0.04147427901625633 0.9945290684700012 250.0 12.0 1.0 1.0
2.8738258 1.1942478 -1.6681175 0.11163488030433655 -0.01577152870595455 0.9936241507530212 235.0 13.0 1.0 1.0
2.8644123 1.2256448 -1.6699585 0.1449001580476761 0.019982771947979927 0.9892444610595703 247.0 13.0 1.0 1.0
3.0961273 1.2904332 -1.6789428 0.14400309324264526 0.049296073615550995 0.9883486032485962 217.0 14.0 1.0 1.0
3.0857406 1.3241767 -1.6806803 0.12478195875883102 0.01247435249388218 0.9921057224273682 229.0 14.0 1.0 1.0
3.35374 1.4019365 -1.6957366 0.1452106535434723 0.03362167999148369 0.9888292551040649 214.0 15.0 1.0 1.0
3.315589 1.4269145 -1.6838312 0.14529713988304138 0.07232993096113205 0.9867407083511353 205.0 15.0 1.0 1.0
3.0432358 2.0539746 -1.5939389 0.11512215435504913 0.01214266661554575 0.9932771921157837 226.0 16.0 1.0 1.0
3.0034647 2.0731888 -1.5843115 0.1426355540752411 0.05999385565519333 0.9879553318023682 223.0 16.0 1.0 1.0
3.2802532 2.2089818 -1.5906993 0.041163794696331024 0.06996733695268631 0.9966996312141418 202.0 17.0 1.0 1.0
3.266114 2.2495105 -1.5951116 0.08230141550302505 0.020875269547104836 0.9963887929916382 217.0 17.0 1.0 1.0
3.6007137 2.4184844 -1.6098989 0.09545610845088959 0.0608796626329422 0.9935702681541443 190.0 18.0 1.0 1.0
3.5443082 2.434783 -1.595897 0.15810708701610565 0.04675166308879852 0.9863145351409912 184.0 18.0 1.0 1.0
3.8201802 2.5600379 -1.5682169 0.16927891969680786 -0.8451200723648071 0.5070667862892151 255.0 19.0 1.0 1.0
3.8275049 2.6234462 -1.5823466 0.06407655030488968 -0.8296980857849121 0.5545225739479065 255.0 19.0 1.0 1.0
3.8461974 2.572366 -1.4423534 0.024641800671815872 -0.9986000061035156 0.04680737480521202 255.0 20.0 1.0 1.0
3.8127563 2.6081622 -1.4398909 -0.05443518981337547 -0.9963670969009399 0.06549306958913803 255.0 20.0 1.0 1.0
3.8467176 2.5675955 -1.309587 0.04049602895975113 -0.9991322755813599 0.009730957448482513 255.0 21.0 1.0 1.0
3.845041 2.6250873 -1.3182302 -0.13739854097366333 -0.9897633790969849 0.03860212117433548 255.0 21.0 1.0 1.0
3.8764338 2.5823092 -1.1874233 -0.04067862406373024 -0.9977681636810303 0.05295350030064583 255.0 22.0 1.0 1.0
3.8619909 2.6314719 -1.1912973 -0.20791161060333252 -0.9774630665779114 0.03658810257911682 255.0 22.0 1.0 1.0
3.8767424 2.5783546 -1.0590494 -0.08422333002090454 -0.9941126108169556 0.06816545128822327 255.0 23.0 1.0 1.0
3.8785434 2.6385441 -1.066958 -0.23761220276355743 -0.9706519842147827 0.03708526864647865 255.0 23.0 1.0 1.0
3.9029846 2.5926332 -0.9391464 -0.09779961407184601 -0.9941855072975159 0.04505988210439682 255.0 24.0 1.0 1.0
3.9210176 2.6642194 -0.95007694 -0.2982630133628845 -0.949731171131134 0.09513120353221893 255.0 24.0 1.0 1.0
3.9074724 2.5914385 -0.813977 -0.16527628898620605 -0.98419588804245 0.0635785385966301 255.0 25.0 1.0 1.0
3.9192402 2.6587574 -0.82211077 -0.3879224956035614 -0.9195805191993713 0.062353260815143585 255.0 25.0 1.0 1.0
3.9449682 2.6131182 -0.69601536 -0.28936997056007385 -0.953832745552063 0.08042401820421219 255.0 26.0 1.0 1.0
3.9599581 2.6831369 -0.70350504 -0.5138617157936096 -0.853649377822876 0.08502288907766342 255.0 26.0 1.0 1.0
3.9661672 2.6249423 -0.57576603 -0.2939337193965912 -0.9529613852500916 0.07394345849752426 255.0 27.0 1.0 1.0
3.9811888 2.6952631 -0.58193672 -0.5364439487457275 -0.8382879495620728 0.09747342020273209 253.0 27.0 1.0 1.0
3.9687204 2.6234016 -0.45234025 -0.3815751075744629 -0.9172949194908142 0.11388738453388214 255.0 28.0 1.0 1.0
3.9772968 2.6893389 -0.4564251 -0.6639062762260437 -0.7429928779602051 0.08479467779397964 232.0 28.0 1.0 1.0
4.0009608 2.6434929 -0.33215913 -0.5198819637298584 -0.8460886478424072 0.11771487444639206 253.0 29.0 1.0 1.0
4.0424528 2.7321751 -0.33788395 0.04937003180384636 -0.9862954020500183 0.15742889046669006 226.0 29.0 1.0 0.0
4.0239725 2.6574643 -0.21056665 -0.623231828212738 -0.77088862657547 0.13157828152179718 253.0 30.0 1.0 1.0
4.0521865 2.7374814 -0.21345125 -0.014981001615524292 -0.9989636540412903 0.04297805577516556 142.0 30.0 1.0 0.0
4.0610819 2.6807411 -0.088603891 0.021611033007502556 -0.9993733167648315 -0.028032353147864342 250.0 31.0 1.0 0.0
4.0062747 2.7051582 -0.08793667 -0.011251715943217278 -0.999853253364563 -0.012920383363962173 16.0 31.0 1.0 0.0
5.2768979 2.2364047 0.041115846 0.5345751047134399 -0.8445322513580322 -0.03153984248638153 31.0 32.0 1.0 5.0
5.2201896 2.2770891 0.04095041 0.5979259610176086 -0.8002550601959229 -0.04556858539581299 31.0 32.0 1.0 5.0
5.275095 2.2332232 0.1869396 0.542847216129303 -0.8391839265823364 -0.0329744853079319 31.0 33.0 1.0 5.0
4.775044 2.0804746 0.17006077 0.9684224724769592 0.17374756932258606 -0.1788007915019989 47.0 33.0 1.0 1.0
5.2915397 2.2388577 0.33413735 0.5479933619499207 -0.8356069326400757 -0.03826671466231346 30.0 34.0 1.0 5.0
4.5100799 1.9637312 0.28612989 0.987187922000885 0.04689043015241623 -0.15251599252223969 151.0 34.0 1.0 1.0
5.2673779 2.2283759 0.47920048 0.605054497718811 -0.7940548062324524 -0.058188922703266144 31.0 35.0 1.0 5.0
4.5020013 1.9599949 0.41145512 0.9774413108825684 -0.11834373325109482 -0.17493759095668793 238.0 35.0 1.0 1.0
4.8414483 2.045752 0.57591856 0.9724886417388916 0.1721557229757309 -0.15693369507789612 47.0 36.0 1.0 1.0
4.4989424 1.9565796 0.53763813 0.9745309352874756 -0.16943417489528656 -0.14690662920475006 255.0 36.0 1.0 1.0
4.5604587 1.9247733 0.67173296 0.9916345477104187 0.007831555791199207 -0.1288394331932068 145.0 37.0 1.0 1.0
4.4564395 1.9360057 0.6594336 0.9873044490814209 -0.13493843376636505 -0.08379364758729935 250.0 37.0 1.0 1.0
4.5514712 1.9179523 0.7995128 0.979854941368103 -0.16047251224517822 -0.11888125538825989 232.0 38.0 1.0 1.0
4.4405785 1.9261281 0.78360265 0.9658987522125244 -0.23451997339725494 -0.1097266748547554 255.0 38.0 1.0 1.0
4.5212169 1.902182 0.92406899 0.983894407749176 -0.12709486484527588 -0.12569324672222137 238.0 39.0 1.0 1.0
4.4541488 1.9290357 0.91451508 0.9509432315826416 -0.29282668232917786 -0.09979768097400665 255.0 39.0 1.0 1.0
4.5163932 1.8980737 1.0549967 0.9819744825363159 -0.16681720316410065 -0.08887214213609695 255.0 40.0 1.0 1.0
4.4424281 1.921891 1.0424365 0.915640115737915 -0.3910159468650818 -0.09332545846700668 255.0 40.0 1.0 1.0
4.5124092 1.8924681 1.1879386 0.9617336988449097 -0.2634202837944031 -0.07535219937562943 255.0 41.0 1.0 1.0
4.4423723 1.9179637 1.1747975 0.9233545660972595 -0.36070773005485535 -0.13155320286750793 255.0 41.0 1.0 1.0
4.4873829 1.8780515 1.3156382 0.9601865410804749 -0.26228320598602295 -0.09617301821708679 255.0 42.0 1.0 1.0
4.4568095 1.92029 1.3125821 0.8645438551902771 -0.4998866617679596 -0.051742151379585266 255.0 42.0 1.0 1.0
4.4943624 1.8761392 1.4562215 0.6428473591804504 -0.45691531896591187 -0.6147972941398621 255.0 43.0 1.0 1.0
4.4075627 1.8942546 1.4345143 0.8580322265625 -0.4965859353542328 -0.13108399510383606 255.0 43.0 1.0 1.0
4.1958714 1.7468464 1.4908967 -0.01814090833067894 -0.9139748811721802 -0.40536487102508545 232.0 44.0 1.0 1.0
4.2087517 1.8041189 1.5021986 -0.1615857183933258 -0.8635506629943848 -0.47767186164855957 255.0 44.0 1.0 1.0
3.7558596 1.5593399 1.4552578 -0.15995663404464722 -0.10486968606710434 -0.9815376400947571 35.0 45.0 1.0 1.0
3.76353 1.6088988 1.4647642 -0.11692783236503601 -0.08054792135953903 -0.9898685812950134 19.0 45.0 1.0 1.0
3.5964437 1.4884363 1.5107991 -0.17511795461177826 -0.05279204621911049 -0.9831310510635376 255.0 46.0 1.0 1.0
3.5634868 1.518633 1.5036194 -0.17553627490997314 0.02403371036052704 -0.9841795563697815 250.0 46.0 1.0 1.0
3.3439288 1.3801429 1.518113 -0.14515535533428192 -0.06253398209810257 -0.9874307513237 255.0 47.0 1.0 1.0
3.3462307 1.4222451 1.5259167 -0.07419364899396896 -0.02494528330862522 -0.9969318509101868 255.0 47.0 1.0 1.0
3.0110042 2.0089762 1.6418653 -0.1782159060239792 0.03819958493113518 -0.9832496047019958 241.0 48.0 1.0 1.0
2.9957862 2.0444429 1.6452349 -0.17716050148010254 -0.05105498805642128 -0.982856810092926 241.0 48.0 1.0 1.0
2.8057516 1.8757998 1.6450781 -0.11470306664705276 -0.09065872430801392 -0.9892542958259583 241.0 49.0 1.0 1.0
2.8096516 1.9212686 1.6591669 -0.16722795367240906 -0.06598041206598282 -0.9837079644203186 241.0 49.0 1.0 1.0
2.6346698 1.7656355 1.6574911 -0.16561464965343475 -0.012942592613399029 -0.9861056208610535 244.0 50.0 1.0 1.0
2.6364582 1.8071103 1.670524 -0.16377240419387817 -0.018588049337267876 -0.9863229990005493 250.0 50.0 1.0 1.0
2.4760504 1.6645355 1.6688025 -0.15182633697986603 -0.10183541476726532 -0.983147144317627 241.0 51.0 1.0 1.0
2.446959 1.6823863 1.6610379 -0.16994202136993408 -0.022387469187378883 -0.9851997494697571 238.0 51.0 1.0 1.0
2.3391078 1.5767988 1.6862195 -0.1396675705909729 -0.052037179470062256 -0.9888301491737366 255.0 52.0 1.0 1.0
2.3252621 1.6030933 1.6883223 -0.1629628837108612 -0.07337670028209686 -0.9838998913764954 255.0 52.0 1.0 1.0
2.177485 1.4729121 1.6774443 0.5533437132835388 -0.11314436048269272 -0.8252328038215637 255.0 53.0 1.0 1.0
2.148062 1.485963 1.6667235 0.3272852897644043 -0.13165143132209778 -0.935709536075592 255.0 53.0 1.0 1.0
2.0719104 1.4074335 1.7057667 -0.08458523452281952 -0.0771130621433258 -0.9934279322624207 255.0 54.0 1.0 1.0
2.0543168 1.4270986 1.7035569 -0.017248783260583878 -0.07737888395786285 -0.996852457523346 255.0 54.0 1.0 1.0
1.9423641 1.3249364 1.7083961 -0.10039371252059937 -0.058378320187330246 -0.9932335615158081 255.0 55.0 1.0 1.0
1.931004 1.3469924 1.71079 -0.17527437210083008 -0.048623181879520416 -0.9833182096481323 255.0 55.0 1.0 1.0
1.8186556 1.2470827 1.7096759 -0.12818725407123566 -0.01871773973107338 -0.9915732741355896 255.0 56.0 1.0 1.0
1.8132206 1.2714462 1.7170728 -0.12030784040689468 -0.06523169577121735 -0.9905911684036255 255.0 56.0 1.0 1.0
1.7159994 1.1837534 1.7256145 -0.12908241152763367 -0.03896203264594078 -0.9908681511878967 255.0 57.0 1.0 1.0
1.7059933 1.203371 1.7282034 -0.1160210520029068 -0.02571464702486992 -0.9929138422012329 255.0 57.0 1.0 1.0
1.5964271 1.1077834 1.7186974 -0.205104798078537 -0.04468073695898056 -0.9777196049690247 250.0 58.0 1.0 1.0
1.5895879 1.1278474 1.7240357 -0.17573142051696777 -0.014221853576600552 -0.9843353033065796 250.0 58.0 1.0 1.0
1.5031788 1.0508001 1.7370715 0.20673300325870514 -0.026675976812839508 -0.9780336618423462 255.0 59.0 1.0 1.0
1.4944208 1.068109 1.7398562 -0.09806855767965317 -0.027133546769618988 -0.9948096871376038 255.0 59.0 1.0 1.0
1.4361711 1.0132662 1.7862866 0.21694229543209076 -0.01046691183000803 -0.976128339767456 255.0 60.0 1.0 1.0
1.4186392 1.0232515 1.7777572 0.2523440420627594 -0.04791583493351936 -0.9664505124092102 255.0 60.0 1.0 1.0
1.3068109 0.93167812 1.7546479 -0.24324661493301392 -0.2557380497455597 -0.9356436729431152 250.0 61.0 1.0 1.0
1.3056589 0.95161712 1.7664913 -0.24324661493301392 -0.2557380497455597 -0.9356436729431152 255.0 61.0 1.0 1.0
1.2214028 0.8809098 1.7777375 -0.04447367042303085 -0.06296203285455704 -0.9970245361328125 255.0 62.0 1.0 1.0
1.2183074 0.89819616 1.786927 -0.08217605203390121 -0.06370913982391357 -0.9945794343948364 255.0 62.0 1.0 1.0
1.1293148 0.82624632 1.7921761 -0.13344259560108185 -0.2751367688179016 -0.9520991444587708 255.0 63.0 1.0 1.0
1.1245011 0.84091419 1.7985109 -0.2045225352048874 -0.42169201374053955 -0.8833722472190857 255.0 63.0 1.0 1.0
1.1395547 0.39281121 -1.583514 0.10176150500774384 0.025559687986969948 0.9944804310798645 255.0 0.0 1.0 1.0
1.1444933 0.40796581 -1.5962404 0.10176150500774384 0.025559687986969948 0.9944804310798645 255.0 0.0 1.0 1.0
1.2421869 0.43765303 -1.5920224 0.09540785104036331 0.01035004761070013 0.9953844547271729 250.0 1.0 1.0 1.0
1.2351546 0.44974062 -1.5889164 0.09412718564271927 0.009057885967195034 0.9955189228057861 255.0 1.0 1.0 1.0
1.3258638 0.49087682 -1.5827557 0.16942372918128967 -0.03174293413758278 0.9850320219993591 115.0 2.0 1.0 1.0
1.419117 0.51639318 -1.5699439 0.10099858790636063 0.055601514875888824 0.9933316111564636 21.0 3.0 1.0 1.0
1.5596976 0.57469314 -1.6105111 0.07322655618190765 0.0026690487284213305 0.9973117709159851 244.0 4.0 1.0 1.0
1.5536036 0.59097332 -1.6104848 0.16984786093235016 0.002637348836287856 0.9854668378829956 232.0 4.0 1.0 1.0
1.6612726 0.61868447 -1.6037525 0.0957900732755661 0.06293337792158127 0.9934101104736328 241.0 5.0 1.0 1.0
1.6574773 0.63709283 -1.6064111 0.0957900732755661 0.06293337792158127 0.9934101104736328 250.0 5.0 1.0 1.0
1.7939348 0.67452466 -1.6217045 0.10731808841228485 0.012425912544131279 0.9941471219062805 255.0 6.0 1.0 1.0
1.7754097 0.68882388 -1.611328 0.12325038015842438 0.0285665150731802 0.9919643998146057 255.0 6.0 1.0 1.0
1.9308752 0.7317943 -1.6363597 0.14567086100578308 0.07791462540626526 0.9862602353096008 255.0 7.0 1.0 1.0
1.9172832 0.74966466 -1.6313531 0.11735724657773972 0.035578664392232895 0.9924522042274475 255.0 7.0 1.0 1.0
2.0479138 0.78144062 -1.6285869 0.0572759211063385 0.03185545280575752 0.9978500604629517 255.0 8.0 1.0 1.0
2.0366433 0.80164379 -1.6261642 0.11723081767559052 0.011645491234958172 0.9930363893508911 253.0 8.0 1.0 1.0
2.2231107 0.85410601 -1.6596612 0.12423631548881531 0.0164424329996109 0.9921164512634277 255.0 9.0 1.0 1.0
2.2110066 0.87610745 -1.6573341 0.12423631548881531 0.0164424329996109 0.9921164512634277 255.0 9.0 1.0 1.0
2.3639221 0.91244489 -1.6556343 0.11488965153694153 0.05398476868867874 0.9919102787971497 247.0 10.0 1.0 1.0
2.3604648 0.93961054 -1.6599742 0.11775702238082886 0.05688273534178734 0.9914119243621826 255.0 10.0 1.0 1.0
2.5242491 0.97938031 -1.6580031 0.05449158698320389 0.007138778921216726 0.99848872423172 241.0 11.0 1.0 1.0
2.5106997 1.00447 -1.6558692 0.13214011490345 0.05650852993130684 0.9896189570426941 241.0 11.0 1.0 1.0
2.7217941 1.0609541 -1.6740872 0.1029200330376625 0.06281470507383347 0.9927043318748474 241.0 12.0 1.0 1.0
2.6912363 1.081599 -1.662097 0.05689750239253044 0.05435730516910553 0.9968991875648499 238.0 12.0 1.0 1.0
2.9211688 1.1427759 -1.6814574 0.16872921586036682 0.06655265390872955 0.98341304063797 235.0 13.0 1.0 1.0
2.9025166 1.1706411 -1.6776246 0.1673731803894043 0.034558363258838654 0.9852877855300903 241.0 13.0 1.0 1.0
3.1424365 1.2331257 -1.6898022 0.13712532818317413 -0.01673887111246586 0.9904122352600098 220.0 14.0 1.0 1.0
3.1227336 1.263258 -1.6861645 0.08864131569862366 0.05425482988357544 0.9945849180221558 223.0 14.0 1.0 1.0
3.4127054 1.3433189 -1.7110859 0.1238165870308876 0.05928247049450874 0.9905326962471008 211.0 15.0 1.0 1.0
3.3917472 1.3762326 -1.7076424 0.13823111355304718 0.05951506644487381 0.9886100888252258 226.0 15.0 1.0 1.0
3.104085 2.001704 -1.6036385 0.12779949605464935 0.017974207177758217 0.9916371703147888 223.0 16.0 1.0 1.0
3.0768418 2.0300322 -1.6003869 0.1705658882856369 0.04381227493286133 0.9843718409538269 223.0 16.0 1.0 1.0
3.3632388 2.1638844 -1.6087703 0.108587846159935 0.045977890491485596 0.9930229783058167 208.0 17.0 1.0 1.0
3.3249149 2.1887507 -1.6012328 0.12992581725120544 0.09959057718515396 0.9865094423294067 205.0 17.0 1.0 1.0
3.6821363 2.3627751 -1.6239861 0.133574977517128 0.031203314661979675 0.9905472993850708 193.0 18.0 1.0 1.0
3.6415365 2.390882 -1.6169472 0.13510486483573914 0.02525983937084675 0.9905092120170593 181.0 18.0 1.0 1.0
3.8347354 2.4549086 -1.5528812 0.320983350276947 -0.8981077671051025 0.3006197512149811 255.0 19.0 1.0 1.0
3.8499765 2.5219018 -1.5695982 0.3040182590484619 -0.8188275098800659 0.4869235157966614 255.0 19.0 1.0 1.0
3.863869 2.4685736 -1.4294187 0.2972223162651062 -0.9547728896141052 0.008229034952819347 255.0 20.0 1.0 1.0
3.8473988 2.515151 -1.4329137 0.24222810566425323 -0.9693378806114197 0.04134879633784294 255.0 20.0 1.0 1.0
3.8802116 2.4740083 -1.3032122 0.25365713238716125 -0.9670685529708862 0.0208893995732069 255.0 21.0 1.0 1.0
3.8637626 2.5207951 -1.3064049 0.18479278683662415 -0.9824150204658508 0.026690077036619186 255.0 21.0 1.0 1.0
3.8806643 2.4692848 -1.1727598 0.2026001662015915 -0.9791116118431091 -0.017134368419647217 255.0 22.0 1.0 1.0
3.874078 2.5224617 -1.178614 0.04282979294657707 -0.9988378882408142 0.02209951914846897 255.0 22.0 1.0 1.0
3.8871427 2.4693565 -1.0476761 0.16657577455043793 -0.9855733513832092 0.02995980530977249 255.0 23.0 1.0 1.0
3.8839543 2.5247924 -1.0538123 0.03779691830277443 -0.9992538094520569 0.007945321500301361 255.0 23.0 1.0 1.0
3.8968763 2.4724438 -0.92515558 0.139755979180336 -0.9900050759315491 0.01893007382750511 255.0 24.0 1.0 1.0
3.9102294 2.5387385 -0.93451691 -0.038032714277505875 -0.9982516765594482 0.04524417594075203 255.0 24.0 1.0 1.0
3.9176612 2.481575 -0.80524552 0.11386449635028839 -0.9913538694381714 0.06521090865135193 255.0 25.0 1.0 1.0
3.9079883 2.5331602 -0.80858976 -0.04111490398645401 -0.9985421895980835 0.03497261181473732 255.0 25.0 1.0 1.0
3.9487245 2.4981432 -0.68744802 0.003617447568103671 -0.9982012510299683 0.05984253063797951 255.0 26.0 1.0 1.0
3.9323089 2.5457809 -0.6891157 -0.09760097414255142 -0.9949392676353455 0.023875374346971512 255.0 26.0 1.0 1.0
3.9666293 2.5073109 -0.56823981 -0.038524080067873 -0.9916020631790161 0.12345580011606216 255.0 27.0 1.0 1.0
3.9501517 2.5551529 -0.56960291 -0.16658301651477814 -0.9830173850059509 0.07698644697666168 255.0 27.0 1.0 1.0
3.9656172 2.50353 -0.44606954 -0.10989109426736832 -0.9903656840324402 0.08425997942686081 255.0 28.0 1.0 1.0
3.975956 2.568675 -0.45015818 -0.2528539001941681 -0.963343620300293 0.08963222801685333 255.0 28.0 1.0 1.0
3.9610381 2.4994342 -0.32458389 -0.11391499638557434 -0.9923025369644165 0.04857057332992554 255.0 29.0 1.0 1.0
3.984905 2.5732398 -0.32865441 -0.31705063581466675 -0.938896119594574 0.1339890956878662 255.0 29.0 1.0 1.0
3.9977059 2.5213945 -0.20654675 -0.15490546822547913 -0.9850959181785583 0.07476934790611267 255.0 30.0 1.0 1.0
4.0113506 2.5891097 -0.20856278 -0.4030289351940155 -0.9096558094024658 0.10046914964914322 255.0 30.0 1.0 1.0
4.0183129 2.5331955 -0.086661778 -0.3033407926559448 -0.9475952386856079 0.10023842006921768 255.0 31.0 1.0 1.0
4.0285096 2.5989661 -0.087383576 -0.5122418403625488 -0.8521462678909302 0.10702866315841675 255.0 31.0 1.0 1.0
5.3411942 2.1328104 0.041074909 0.23483386635780334 -0.9720334410667419 -0.002004089066758752 31.0 32.0 1.0 5.0
5.2630816 2.1657274 0.040737804 0.32365092635154724 -0.9461359977722168 -0.008758844807744026 32.0 32.0 1.0 5.0
5.3207574 2.1222486 0.18675618 0.2572268843650818 -0.9651584029197693 -0.0479930117726326 31.0 33.0 1.0 5.0
5.3167152 2.1854119 0.18749967 0.4166429340839386 -0.9088326096534729 -0.020781153813004494 31.0 33.0 1.0 5.0
5.3261933 2.1231022 0.3332569 0.23437678813934326 -0.971977949142456 -0.01806681789457798 30.0 34.0 1.0 5.0
5.3295074 2.1893456 0.33497402 0.37740978598594666 -0.9252647757530212 -0.03804058954119682 30.0 34.0 1.0 5.0
5.3721809 2.1412122 0.4843612 0.22990518808364868 -0.9732111096382141 -0.0019072153372690082 30.0 35.0 1.0 5.0
5.331017 2.1897218 0.4827832 0.5121122598648071 -0.8588611483573914 -0.009928933344781399 30.0 35.0 1.0 5.0
5.2157063 2.0764258 0.6149708 0.08158591389656067 -0.9937764406204224 -0.07584282010793686 34.0 36.0 1.0 2.0
5.2488294 2.1535413 0.62159801 0.555505633354187 -0.8310580253601074 -0.027496235445141792 32.0 36.0 1.0 2.0
5.0380392 2.0033402 0.73560321 0.0800379142165184 -0.9929586052894592 0.08733338862657547 36.0 37.0 1.0 2.0
5.06077 2.0739911 0.74214709 0.5765014886856079 -0.8151190280914307 -0.056807469576597214 106.0 37.0 1.0 2.0
5.3575826 2.1270709 0.93299341 0.572594404220581 -0.8056403398513794 -0.15191856026649475 31.0 38.0 1.0 5.0
5.3532629 2.1904869 0.93628269 0.43070003390312195 -0.8995020985603333 -0.07343947887420654 31.0 38.0 1.0 1.0
5.3602624 2.1246393 1.0861568 0.417203426361084 -0.9052959680557251 -0.07987812161445618 30.0 39.0 1.0 5.0
4.8829193 1.9945883 0.99363548 0.9676012992858887 0.20924554765224457 -0.14129450917243958 47.0 39.0 1.0 1.0
5.4058294 2.1402838 1.2519758 0.2156098634004593 -0.9734842777252197 -0.07642491906881332 13.0 40.0 1.0 5.0
4.6048369 1.8787534 1.0709262 0.9833517670631409 -0.07847026735544205 -0.1638953536748886 151.0 40.0 1.0 1.0
5.4222136 2.1421418 1.4153149 0.08695174753665924 -0.996113121509552 -0.014071714133024216 30.0 41.0 1.0 5.0
4.5644126 1.8583015 1.1963578 0.9839285016059875 -0.07974787056446075 -0.15976551175117493 193.0 41.0 1.0 1.0
4.7412868 1.8687588 1.378171 0.9766131639480591 0.16888098418712616 -0.1330639272928238 202.0 42.0 1.0 1.0
4.5926785 1.8658649 1.3406371 0.986951470375061 -0.11134764552116394 -0.11631229519844055 255.0 42.0 1.0 1.0
4.4792476 1.7606025 1.4388696 -0.12771539390087128 -0.09971258044242859 -0.9867858290672302 142.0 43.0 1.0 1.0
4.4605389 1.8073497 1.4389461 0.21851292252540588 -0.31113988161087036 -0.9249022603034973 160.0 43.0 1.0 1.0
4.1856112 1.6405962 1.4745353 -0.030404318124055862 -0.6470057368278503 -0.7618786692619324 232.0 44.0 1.0 1.0
4.1963582 1.6956809 1.4845866 -0.12738193571567535 -0.9333182573318481 -0.3356946110725403 241.0 44.0 1.0 1.0
3.7597008 1.4694241 1.44434 -0.14269192516803741 -0.04654253274202347 -0.9886721968650818 35.0 45.0 1.0 1.0
3.7790015 1.5227473 1.4578899 -0.08517145365476608 -0.08146203309297562 -0.9930306077003479 16.0 45.0 1.0 1.0
3.5991004 1.4020191 1.4990885 -0.1310434490442276 -0.053481824696063995 -0.9899329543113708 255.0 46.0 1.0 1.0
3.5738168 1.4353936 1.4948047 -0.10644061863422394 -0.057504307478666306 -0.9926549196243286 250.0 46.0 1.0 1.0
3.3618484 1.3058743 1.5133512 -0.11095480620861053 -0.05254633352160454 -0.9924352765083313 255.0 47.0 1.0 1.0
3.3479619 1.3409444 1.5134084 -0.08903813362121582 -0.05305888131260872 -0.9946138858795166 255.0 47.0 1.0 1.0
3.0217924 1.9259638 1.6252009 -0.11903337389230728 0.0008301089983433485 -0.9928898811340332 238.0 48.0 1.0 1.0
3.0197251 1.9693906 1.6351819 -0.13852503895759583 0.003317470196634531 -0.9903533458709717 244.0 48.0 1.0 1.0
2.8444927 1.8167213 1.6449548 -0.11539722979068756 -0.006109996233135462 -0.9933006167411804 250.0 49.0 1.0 1.0
2.8282909 1.8483135 1.6467662 -0.2089420109987259 -0.07604610174894333 -0.9749667644500732 244.0 49.0 1.0 1.0
2.6681559 1.7082542 1.6555212 -0.13071958720684052 -0.026606017723679543 -0.991062343120575 253.0 50.0 1.0 1.0
2.6560185 1.7399265 1.6592833 -0.10641564428806305 0.007259922567754984 -0.9942952394485474 253.0 50.0 1.0 1.0
2.5016313 1.6067486 1.6628317 -0.09011086076498032 -0.08693527430295944 -0.9921301007270813 247.0 51.0 1.0 1.0
2.4992142 1.6423908 1.6726524 -0.10139662027359009 -0.07618050277233124 -0.991925060749054 253.0 51.0 1.0 1.0
2.3486135 1.5126758 1.6696869 -0.12344824522733688 -0.004365138243883848 -0.9923414587974548 255.0 52.0 1.0 1.0
2.358393 1.5541487 1.6882182 -0.1419357806444168 -0.023181132972240448 -0.9896043539047241 255.0 52.0 1.0 1.0
2.2192352 1.4344262 1.6859603 0.48743030428886414 -0.09864459186792374 -0.8675718307495117 255.0 53.0 1.0 1.0
2.2012537 1.4556592 1.6838523 0.48746970295906067 -0.09861722588539124 -0.8675528168678284 255.0 53.0 1.0 1.0
2.0954554 1.360238 1.7011685 -0.14081110060214996 -0.025778990238904953 -0.9897008538246155 255.0 54.0 1.0 1.0
2.083818 1.383873 1.7034645 -0.14399926364421844 -0.029030967503786087 -0.9891518354415894 255.0 54.0 1.0 1.0
1.9507955 1.2716905 1.691839 -0.12543226778507233 -0.06484316289424896 -0.9899808168411255 255.0 55.0 1.0 1.0
1.9507867 1.3009751 1.7036439 -0.11646765470504761 -0.05577782168984413 -0.991627037525177 255.0 55.0 1.0 1.0
1.8417947 1.2071012 1.707142 -0.09301137924194336 -0.013090665452182293 -0.995578944683075 255.0 56.0 1.0 1.0
1.8316458 1.2280198 1.7096325 -0.12260591238737106 -0.013048467226326466 -0.9923696517944336 250.0 56.0 1.0 1.0
1.7301993 1.1408775 1.7153277 -0.15749980509281158 -0.05324425548315048 -0.9860826134681702 255.0 57.0 1.0 1.0
1.7232294 1.1623195 1.7204684 -0.10026486217975616 -0.03909274935722351 -0.9941925406455994 255.0 57.0 1.0 1.0
1.6218283 1.0758862 1.7212776 -0.1536252349615097 -0.03995845094323158 -0.9873209595680237 255.0 58.0 1.0 1.0
1.6054928 1.0893748 1.7160068 -0.15862366557121277 -0.04507329687476158 -0.9863097071647644 253.0 58.0 1.0 1.0
1.5345544 1.0256784 1.7480142 0.2063797116279602 -0.06421904265880585 -0.9763622879981995 255.0 59.0 1.0 1.0
1.5189134 1.0383422 1.7425406 0.2063797116279602 -0.06421904265880585 -0.9763622879981995 255.0 59.0 1.0 1.0
1.4316013 0.9658016 1.7548356 -0.36432164907455444 -0.03299558535218239 -0.9306885600090027 253.0 60.0 1.0 1.0
1.4352068 0.99025065 1.7719851 0.21694229543209076 -0.01046691183000803 -0.976128339767456 255.0 60.0 1.0 1.0
1.3283176 0.90575665 1.7575417 -0.35213738679885864 -0.13940653204917908 -0.9255080223083496 255.0 61.0 1.0 1.0
1.3143108 0.916457 1.7516619 -0.39124804735183716 -0.1839883178472519 -0.9017056822776794 250.0 61.0 1.0 1.0
1.2290239 0.84791148 1.7624096 -0.11533688753843307 -0.27877292037010193 -0.9534060955047607 253.0 62.0 1.0 1.0
1.2326919 0.86962831 1.7807615 -0.04416445270180702 -0.06384765356779099 -0.9969819188117981 255.0 62.0 1.0 1.0
1.1444143 0.80113196 1.7889686 -0.30904218554496765 -0.2629052400588989 -0.9139878153800964 255.0 63.0 1.0 1.0
1.1379281 0.81444126 1.7921478 -0.30904218554496765 -0.2629052400588989 -0.9139878153800964 255.0 63.0 1.0 1.0
1.3033837 0.46704939 -1.5499258 0.16942372918128967 -0.03174293413758278 0.9850320219993591 17.0 2.0 1.0 1.0
1.1452104 0.36812371 -1.5803641 0.14624591171741486 0.07063854485750198 0.986723005771637 247.0 0.0 1.0 1.0
1.1527661 0.38391516 -1.5962775 0.14624591171741486 0.07063854485750198 0.986723005771637 255.0 0.0 1.0 1.0
1.2486439 0.41074878 -1.588977 0.09540757536888123 -0.01062586810439825 0.9953815937042236 172.0 1.0 1.0 1.0
1.2418752 0.42295575 -1.5858713 0.09540757536888123 -0.01062586810439825 0.9953815937042236 214.0 1.0 1.0 1.0
1.471531 0.50090051 -1.6161687 0.09461044520139694 0.0491691417992115 0.9942994117736816 199.0 3.0 1.0 1.0
1.4636036 0.51533806 -1.6132587 0.10099858790636063 0.055601514875888824 0.9933316111564636 130.0 3.0 1.0 1.0
1.5795089 0.54471892 -1.6189218 0.10750266909599304 0.01925855688750744 0.9940183162689209 255.0 4.0 1.0 1.0
1.5683243 0.5592733 -1.613323 0.10985357314348221 0.02163662388920784 0.9937122464179993 247.0 4.0 1.0 1.0
1.7018188 0.5935477 -1.6306729 0.11611074209213257 -0.004268391989171505 0.9932270646095276 255.0 5.0 1.0 1.0
1.6815866 0.60627234 -1.6172124 0.17041048407554626 0.10061811655759811 0.9802225828170776 255.0 5.0 1.0 1.0
1.8191586 0.64086878 -1.6321102 0.15909217298030853 0.060824692249298096 0.9853882193565369 255.0 6.0 1.0 1.0
1.8066257 0.65776849 -1.6269071 0.15909217298030853 0.060824692249298096 0.9853882193565369 255.0 6.0 1.0 1.0
1.9457624 0.69118661 -1.6364236 0.10069706290960312 0.060231804847717285 0.9930922985076904 255.0 7.0 1.0 1.0
1.9296082 0.70825541 -1.6289303 0.1280507743358612 0.06004113703966141 0.9899485111236572 253.0 7.0 1.0 1.0
2.094018 0.74920875 -1.6525366 0.20232003927230835 0.11405425518751144 0.9726552963256836 255.0 8.0 1.0 1.0
2.0830588 0.76995957 -1.6501139 0.039067208766937256 0.013613888062536716 0.9991438984870911 255.0 8.0 1.0 1.0
2.2466671 0.80957431 -1.6643138 0.08423005044460297 0.1273891031742096 0.9882699251174927 255.0 9.0 1.0 1.0
2.2257845 0.82844758 -1.6551192 0.08298999816179276 0.06023025885224342 0.9947285652160645 255.0 9.0 1.0 1.0
2.398231 0.86843085 -1.666664 0.1491173505783081 0.08165420591831207 0.9854422807693481 250.0 10.0 1.0 1.0
2.3890159 0.89347649 -1.6666242 0.06958822160959244 0.08293537050485611 0.9941223859786987 247.0 10.0 1.0 1.0
2.5698211 0.93563265 -1.6748154 0.19652430713176727 0.03188088908791542 0.97998046875 238.0 11.0 1.0 1.0
2.5598929 0.96247154 -1.6747727 0.09358487278223038 0.024735327810049057 0.9953040480613708 255.0 11.0 1.0 1.0
2.7564361 1.0084709 -1.6821413 0.18045951426029205 0.10850946605205536 0.9775786995887756 238.0 12.0 1.0 1.0
2.736001 1.0335747 -1.6761233 0.12823377549648285 0.051079295575618744 0.9904277324676514 232.0 12.0 1.0 1.0
2.9576833 1.0861863 -1.6891215 0.14509209990501404 0.09144997596740723 0.9851828813552856 229.0 13.0 1.0 1.0
2.9494519 1.1183307 -1.6909637 0.09066377580165863 0.03647549822926521 0.9952134490013123 238.0 13.0 1.0 1.0
3.1910491 1.1756783 -1.7024523 0.1349874883890152 0.014786765910685062 0.9907369017601013 220.0 14.0 1.0 1.0
3.1551821 1.2000945 -1.6898546 0.13712532818317413 -0.01673887111246586 0.9904122352600098 214.0 14.0 1.0 1.0
3.467274 1.2815796 -1.7247415 0.11659730225801468 0.02898881956934929 0.9927561283111572 211.0 15.0 1.0 1.0
3.4435184 1.3139156 -1.7196058 0.14186900854110718 0.04612761363387108 0.988810122013092 211.0 15.0 1.0 1.0
3.1640713 1.9477781 -1.6133372 0.1405951827764511 -0.030453819781541824 0.9895987510681152 217.0 16.0 1.0 1.0
3.1373062 1.9768673 -1.6100857 0.2118937224149704 0.05797421187162399 0.9755716919898987 223.0 16.0 1.0 1.0
3.4394364 2.1123788 -1.6238536 0.1154247596859932 0.05967726930975914 0.991521954536438 193.0 17.0 1.0 1.0
3.3951573 2.1344187 -1.6133279 0.15646857023239136 0.04769713059067726 0.986530601978302 196.0 17.0 1.0 1.0
3.7819681 2.3164673 -1.646431 0.08572692424058914 0.02693902514874935 0.9959543943405151 223.0 18.0 1.0 1.0
3.7352846 2.3419654 -1.6366055 0.14328821003437042 0.01580720767378807 0.989554762840271 211.0 18.0 1.0 1.0
3.9047012 2.3858702 -1.5607973 0.567506730556488 -0.8219993710517883 0.04746638238430023 255.0 19.0 1.0 1.0
3.8538463 2.4105308 -1.5503833 0.3465360999107361 -0.9378174543380737 -0.020279914140701294 255.0 19.0 1.0 1.0
3.9049661 2.3811011 -1.4260089 0.5250809192657471 -0.8508398532867432 -0.019017770886421204 255.0 20.0 1.0 1.0
3.8765872 2.4198148 -1.4247402 0.376703679561615 -0.9262564182281494 0.011969363316893578 255.0 20.0 1.0 1.0
3.921339 2.3861594 -1.3001049 0.4614560008049011 -0.8857555985450745 -0.049954816699028015 255.0 21.0 1.0 1.0
3.8863473 2.4209559 -1.2967551 0.3303495943546295 -0.9434735774993896 0.02695927955210209 255.0 21.0 1.0 1.0
3.9216199 2.3813987 -1.1699574 0.48258280754089355 -0.8747640252113342 -0.043609872460365295 255.0 22.0 1.0 1.0
3.8767302 2.4100168 -1.1639459 0.2711445093154907 -0.962109386920929 -0.02874189428985119 255.0 22.0 1.0 1.0
3.9280338 2.3813086 -1.0451767 0.44020533561706543 -0.8975046277046204 -0.026544425636529922 255.0 23.0 1.0 1.0
3.9128222 2.4284589 -1.047763 0.24957509338855743 -0.9679083228111267 0.029422815889120102 255.0 23.0 1.0 1.0
3.9545407 2.3943341 -0.92689449 0.41070255637168884 -0.9115947484970093 -0.01784372329711914 255.0 24.0 1.0 1.0
3.9092603 2.4231737 -0.9220953 0.20903758704662323 -0.9777154922485352 0.019382745027542114 255.0 24.0 1.0 1.0
3.9452083 2.3846798 -0.80061674 0.3418278098106384 -0.9397625923156738 -4.4811378757003695e-05 255.0 25.0 1.0 1.0
3.9535191 2.4465895 -0.80738759 0.15643344819545746 -0.9874765872955322 0.020459111779928207 255.0 25.0 1.0 1.0
3.9494154 2.3841736 -0.67887318 0.26257291436195374 -0.9647797346115112 0.01598649099469185 255.0 26.0 1.0 1.0
3.9242311 2.4253664 -0.67879522 0.1662246733903885 -0.985073447227478 0.044717319309711456 253.0 26.0 1.0 1.0
3.9707224 2.3949358 -0.56166846 0.23908568918704987 -0.9705270528793335 -0.030254457145929337 255.0 27.0 1.0 1.0
3.9454234 2.4363496 -0.56159008 0.13329555094242096 -0.9902350306510925 0.04082665219902992 255.0 27.0 1.0 1.0
3.9660757 2.389071 -0.44054911 0.17653308808803558 -0.9840291738510132 0.02286282181739807 255.0 28.0 1.0 1.0
3.9577758 2.4408972 -0.44236654 0.11912064254283905 -0.9910298585891724 0.06058216840028763 255.0 28.0 1.0 1.0
4.0125594 2.4159284 -0.32475117 0.12714265286922455 -0.9914006590843201 0.030976077541708946 255.0 29.0 1.0 1.0
3.9768476 2.4514885 -0.32384148 -0.022312669083476067 -0.9993228316307068 0.029257982969284058 255.0 29.0 1.0 1.0
4.0017633 2.4082427 -0.20426618 0.10484227538108826 -0.9926409125328064 0.06059783697128296 255.0 30.0 1.0 1.0
4.006927 2.4688623 -0.20576125 -0.0689312294125557 -0.9954207539558411 0.0662260577082634 255.0 30.0 1.0 1.0
4.0088682 2.4113472 -0.085513428 -0.001227359869517386 -0.9995952844619751 0.028419915586709976 255.0 31.0 1.0 1.0
4.0208335 2.4762459 -0.086239077 -0.09396183490753174 -0.9945904016494751 0.04428381845355034 255.0 31.0 1.0 1.0
5.4259214 2.0359409 0.041207787 -0.1785905957221985 -0.8900458216667175 0.41943272948265076 32.0 32.0 1.0 5.0
5.3595405 2.0752554 0.040957019 0.03391137719154358 -0.9782935380935669 0.20443056523799896 31.0 32.0 1.0 5.0
5.3977699 2.0229824 0.18774953 0.36418983340263367 -0.8981727957725525 0.24627470970153809 32.0 33.0 1.0 5.0
5.3688221 2.0764632 0.18757924 0.26526060700416565 -0.9634719491004944 -0.03685857728123665 31.0 33.0 1.0 5.0
5.4069285 2.0251079 0.33539855 0.3573912978172302 -0.9339012503623962 -0.009993553161621094 31.0 34.0 1.0 5.0
5.3481708 2.067158 0.33316782 0.29209861159324646 -0.955883264541626 -0.031071173027157784 30.0 34.0 1.0 5.0
5.4121661 2.026835 0.4838469 0.48062893748283386 -0.8769237995147705 -0.0008128025219775736 31.0 35.0 1.0 5.0
5.3757596 2.0775959 0.48260173 0.2573465406894684 -0.9657784700393677 -0.03232419490814209 31.0 35.0 1.0 5.0
5.1650119 1.9318836 0.60390425 -0.0 -1.0 0.0 36.0 36.0 1.0 1.0
5.2038226 2.008749 0.61096215 -0.08404823392629623 -0.9354534149169922 -0.3433113992214203 36.0 36.0 1.0 1.0
5.153194 1.9251794 0.74619281 0.2702663242816925 -0.583332359790802 0.7659500241279602 37.0 37.0 1.0 2.0
5.1253386 1.9761294 0.74520296 0.2632223665714264 -0.6384687423706055 0.7232369184494019 37.0 37.0 1.0 2.0
5.3899179 2.0102744 0.93089592 0.06598208099603653 -0.9906418919563293 -0.11947789043188095 31.0 38.0 1.0 5.0
5.3501291 2.0594513 0.92778915 0.1821274757385254 -0.9680602550506592 -0.17230448126792908 33.0 38.0 1.0 5.0
5.4183798 2.0174291 1.08894 0.20166297256946564 -0.9633529186248779 -0.1768704503774643 31.0 39.0 1.0 1.0
5.4189467 2.0824704 1.0934753 0.2135767638683319 -0.9604913592338562 -0.1784415990114212 30.0 39.0 1.0 5.0
5.4568644 2.029357 1.2534795 0.17848636209964752 -0.9688655138015747 -0.17158761620521545 31.0 40.0 1.0 5.0
5.4352899 2.0863299 1.2535706 0.5705732107162476 -0.8071154356002808 -0.15169310569763184 30.0 40.0 1.0 5.0
5.4477391 2.0213802 1.4104136 0.0855533704161644 -0.984585165977478 -0.15255345404148102 31.0 41.0 1.0 5.0
5.4371352 2.0824306 1.4133366 0.0885503962635994 -0.9922689199447632 -0.08695512264966965 31.0 41.0 1.0 5.0
4.8011723 1.7771504 1.3842806 -0.04916667938232422 -0.5160411596298218 -0.8551515936851501 148.0 42.0 1.0 1.0
4.8183351 1.8410662 1.3948079 0.696477472782135 -0.06991720199584961 -0.7141643166542053 187.0 42.0 1.0 1.0
4.4648776 1.6478604 1.4226714 -0.13733623921871185 -0.08271430432796478 -0.9870648384094238 112.0 43.0 1.0 1.0
4.4616718 1.6999289 1.4273312 -0.07777123898267746 -0.022878224030137062 -0.9967087507247925 127.0 43.0 1.0 1.0
4.2012835 1.5460662 1.4681592 -0.10960061848163605 -0.7883296012878418 -0.605412483215332 247.0 44.0 1.0 1.0
4.1706285 1.5845078 1.4632397 -0.08875086903572083 -0.7495744228363037 -0.6559431552886963 220.0 44.0 1.0 1.0
3.7826395 1.3878319 1.4415181 -0.08933734148740768 -0.024415984749794006 -0.9957020878791809 35.0 45.0 1.0 1.0
3.7678728 1.4273055 1.4415809 -0.1831071376800537 -0.021429674699902534 -0.9828593730926514 10.0 45.0 1.0 1.0
3.5892191 1.312302 1.4830385 -0.1506567895412445 -0.026488780975341797 -0.9882311820983887 255.0 46.0 1.0 1.0
3.6066411 1.3616242 1.4961324 -0.10768555104732513 -0.03859531506896019 -0.9934356212615967 255.0 46.0 1.0 1.0
3.3573396 1.2238714 1.4993005 -0.13859672844409943 -0.05968226119875908 -0.988548994064331 247.0 47.0 1.0 1.0
3.3581152 1.2641053 1.5055515 -0.1391953080892563 -0.04764830321073532 -0.9891179203987122 255.0 47.0 1.0 1.0
3.0428746 1.8509717 1.615154 -0.11373071372509003 -0.007573757320642471 -0.993482768535614 238.0 48.0 1.0 1.0
3.0294769 1.8865267 1.6185205 -0.11674764007329941 -0.003871460910886526 -0.9931540489196777 232.0 48.0 1.0 1.0
2.8666446 1.747474 1.6360664 -0.12200520187616348 -0.077328160405159 -0.98951256275177 255.0 49.0 1.0 1.0
2.8603535 1.7849563 1.6431373 -0.06821063905954361 -0.030741149559617043 -0.9971972107887268 255.0 49.0 1.0 1.0
2.6792321 1.6372883 1.6405783 -0.14148522913455963 -0.06416265666484833 -0.9878588318824768 247.0 50.0 1.0 1.0
2.6559048 1.6614256 1.6369238 -0.1554436832666397 -0.06299696117639542 -0.9858339428901672 241.0 50.0 1.0 1.0
2.5258772 1.5486227 1.6568636 -0.13751141726970673 -0.031999848783016205 -0.989983081817627 250.0 51.0 1.0 1.0
2.5006297 1.5693489 1.6510522 -0.11942868679761887 -0.05108578875660896 -0.9915276169776917 244.0 51.0 1.0 1.0
2.3593872 1.450654 1.655212 -0.14422446489334106 -0.07118862122297287 -0.9869810342788696 250.0 52.0 1.0 1.0
2.3643606 1.488037 1.6696337 -0.07384582608938217 -0.027766458690166473 -0.9968830347061157 255.0 52.0 1.0 1.0
2.2230504 1.3717792 1.6664883 -0.12389892339706421 -0.06480855494737625 -0.990176260471344 253.0 53.0 1.0 1.0
2.2256238 1.4057391 1.6794508 0.08188421279191971 0.03117786906659603 -0.9961540102958679 255.0 53.0 1.0 1.0
2.109509 1.3074418 1.6898136 -0.08182208240032196 -0.06157408282160759 -0.9947431087493896 255.0 54.0 1.0 1.0
2.0900953 1.325848 1.6853495 -0.13685275614261627 -0.025799334049224854 -0.9902553558349609 255.0 54.0 1.0 1.0
1.9852933 1.2358069 1.6988134 -0.09943761676549911 -0.018999233841896057 -0.99486243724823 255.0 55.0 1.0 1.0
1.9831182 1.2634298 1.7082645 -0.09934291243553162 -0.04758303612470627 -0.9939149022102356 255.0 55.0 1.0 1.0
1.8640541 1.1666986 1.7046099 -0.15832504630088806 -0.07785466313362122 -0.984312891960144 255.0 56.0 1.0 1.0
1.8490471 1.1843816 1.7021945 -0.12875671684741974 -0.04924752563238144 -0.9904525876045227 253.0 56.0 1.0 1.0
1.7485642 1.1012193 1.7101481 -0.1389404684305191 -0.02577693574130535 -0.9899652004241943 255.0 57.0 1.0 1.0
1.7446663 1.1244206 1.7178403 -0.1701195389032364 -0.06616879254579544 -0.983199417591095 255.0 57.0 1.0 1.0
1.633954 1.0353774 1.7105991 0.2291976511478424 -0.029726164415478706 -0.9729258418083191 255.0 58.0 1.0 1.0
1.6280129 1.055632 1.7159359 0.2291976511478424 -0.029726164415478706 -0.9729258418083191 255.0 58.0 1.0 1.0
1.5508682 0.99030578 1.742442 0.2720703184604645 -0.07828876376152039 -0.9590874314308167 250.0 59.0 1.0 1.0
1.5549457 1.0159748 1.7589889 0.27236318588256836 -0.06315072625875473 -0.9601199626922607 255.0 59.0 1.0 1.0
1.4280328 0.92050248 1.7262409 -0.34080377221107483 -0.043652139604091644 -0.9391204714775085 244.0 60.0 1.0 1.0
1.4393241 0.94926846 1.7519486 -0.3640764653682709 -0.049321334809064865 -0.9300622344017029 255.0 60.0 1.0 1.0
1.3312501 0.86752737 1.7368075 0.006716816686093807 -0.06065966561436653 -0.9981359243392944 244.0 61.0 1.0 1.0
1.322063 0.88135493 1.7368345 -0.08192107081413269 -0.14844617247581482 -0.9855214953422546 241.0 61.0 1.0 1.0
1.2530262 0.8263942 1.7715174 -0.004750235937535763 -0.1786733716726303 -0.9838969707489014 255.0 62.0 1.0 1.0
1.2485503 0.84230196 1.7776514 -0.11030306667089462 -0.2789333164691925 -0.9539546370506287 255.0 62.0 1.0 1.0
1.128347 0.75516534 1.7384384 -0.6862119436264038 -0.2666594684123993 -0.6767613887786865 250.0 63.0 1.0 1.0
1.1365553 0.77802181 1.7637012 -0.38216477632522583 -0.33876532316207886 -0.859760582447052 255.0 63.0 1.0 1.0
1.1595955 0.34615397 -1.5899589 0.1507824808359146 0.0631423145532608 0.9865483641624451 208.0 0.0 1.0 1.0
1.1512994 0.35681722 -1.583568 0.1507824808359146 0.0631423145532608 0.9865483641624451 232.0 0.0 1.0 1.0
1.2261918 0.38912195 -1.5550547 0.11502383649349213 -0.010603711940348148 0.9933061599731445 24.0 1.0 1.0 1.0
1.3826989 0.43118885 -1.6216899 0.2108563929796219 0.0679897740483284 0.9751497507095337 115.0 2.0 1.0 1.0
1.3376282 0.43246609 -1.5738819 0.20015288889408112 0.010972404852509499 0.9797031879425049 17.0 2.0 1.0 1.0
1.4869572 0.47165483 -1.6219876 0.19539774954319 0.014640243723988533 0.9806148409843445 253.0 3.0 1.0 1.0
1.4740568 0.4845739 -1.6133054 0.14957036077976227 0.04883509874343872 0.9875444173812866 238.0 3.0 1.0 1.0
1.6014751 0.51504618 -1.6301185 0.21449120342731476 0.0487537644803524 0.9755083322525024 255.0 4.0 1.0 1.0
1.5851182 0.52812541 -1.6189464 0.14790363609790802 0.033618442714214325 0.9884302616119385 255.0 4.0 1.0 1.0
1.7223095 0.56053323 -1.638787 0.16726675629615784 0.018788248300552368 0.9857326149940491 255.0 5.0 1.0 1.0
1.7107408 0.57661778 -1.6333864 0.09821595996618271 0.011032113805413246 0.9951039552688599 255.0 5.0 1.0 1.0
1.8379591 0.60453612 -1.6373417 0.15030977129936218 0.03646158054471016 0.9879664182662964 255.0 6.0 1.0 1.0
1.817102 0.61879504 -1.6243788 0.13697052001953125 0.03872615471482277 0.9898178577423096 253.0 6.0 1.0 1.0
1.9806017 0.65720308 -1.653896 0.16251875460147858 0.10638515651226044 0.980953574180603 255.0 7.0 1.0 1.0
1.9647355 0.67482483 -1.6464028 0.09476666897535324 0.04294508323073387 0.9945727586746216 255.0 7.0 1.0 1.0
2.1183612 0.70823759 -1.6597685 0.11818145960569382 0.03141256421804428 0.9924950003623962 255.0 8.0 1.0 1.0
2.0987129 0.7261526 -1.6501815 0.14078666269779205 0.07936592400074005 0.9868537783622742 255.0 8.0 1.0 1.0
2.2693298 0.76442826 -1.6689649 0.1004713699221611 0.0723651722073555 0.9923048615455627 253.0 9.0 1.0 1.0
2.2457292 0.78271842 -1.6574811 0.15407320857048035 0.12631690502166748 0.9799518585205078 247.0 9.0 1.0 1.0
2.4190493 0.81907105 -1.6689315 0.16074630618095398 0.026563696563243866 0.9866381883621216 244.0 10.0 1.0 1.0
2.4040334 0.84211898 -1.6645118 0.1389761120080948 0.07610102742910385 0.9873673319816589 250.0 10.0 1.0 1.0
2.6082025 0.88819504 -1.6874448 0.14560545980930328 0.08912236988544464 0.9853203892707825 241.0 11.0 1.0 1.0
2.5859075 0.91089684 -1.6790384 0.08463320136070251 -0.017781652510166168 0.996253490447998 238.0 11.0 1.0 1.0
2.799912 0.95837653 -1.6961665 0.17513205111026764 0.0588543601334095 0.9827842116355896 241.0 12.0 1.0 1.0
2.7831936 0.98530364 -1.6921395 0.04376743361353874 0.04359167814254761 0.9980902671813965 238.0 12.0 1.0 1.0
2.9964347 1.0297126 -1.6986754 0.1464880108833313 0.06911585479974747 0.9867949485778809 226.0 13.0 1.0 1.0
2.9722171 1.0562845 -1.6910603 0.09918474406003952 0.05362505093216896 0.9936230182647705 229.0 13.0 1.0 1.0
3.2521427 1.1214006 -1.7222701 0.06487040966749191 0.09856103360652924 0.9930144548416138 223.0 14.0 1.0 1.0
3.2267621 1.1505623 -1.7150487 0.14067623019218445 0.09872449934482574 0.9851211309432983 223.0 14.0 1.0 1.0
3.5070443 1.2133889 -1.7316246 0.08942145854234695 0.053514089435338974 0.9945551753044128 205.0 15.0 1.0 1.0
3.5009794 1.252474 -1.7349532 0.1096544936299324 0.09923484176397324 0.9890037178993225 208.0 15.0 1.0 1.0
3.2484491 1.9070885 -1.6357901 0.15007750689983368 0.03638501092791557 0.9880045652389526 226.0 16.0 1.0 1.0
3.2031693 1.9258388 -1.6229721 0.14580494165420532 0.057088665664196014 0.9876648187637329 217.0 16.0 1.0 1.0
3.5181384 2.0604966 -1.6404308 0.12129129469394684 0.07846924662590027 0.9895104765892029 199.0 17.0 1.0 1.0
3.4804745 2.0876496 -1.6328925 0.15529051423072815 0.05612056702375412 0.9862734079360962 202.0 17.0 1.0 1.0
3.8749795 2.2632101 -1.6660908 0.0709150955080986 0.08859850466251373 0.9935397505760193 223.0 18.0 1.0 1.0
3.8253441 2.2882292 -1.6548713 0.11425899714231491 0.0951298400759697 0.9888858795166016 226.0 18.0 1.0 1.0
3.9799876 2.3187873 -1.5712963 0.695103645324707 -0.7188935279846191 0.004799136891961098 255.0 19.0 1.0 1.0
3.9359989 2.3486652 -1.5634662 0.6400675177574158 -0.7675452828407288 0.034465644508600235 255.0 19.0 1.0 1.0
3.9803967 2.3141265 -1.4357018 0.666201114654541 -0.7435365319252014 -0.05770239233970642 255.0 20.0 1.0 1.0
3.9329958 2.341969 -1.4272848 0.5656155943870544 -0.8230752944946289 -0.05124429240822792 255.0 20.0 1.0 1.0
3.9937682 2.3170078 -1.3079023 0.6473185420036316 -0.7583572268486023 -0.07663489133119583 255.0 21.0 1.0 1.0
3.9362209 2.3389978 -1.296917 0.5208286643028259 -0.8523067831993103 -0.048068370670080185 255.0 21.0 1.0 1.0
3.9740119 2.3006585 -1.1711076 0.6356921195983887 -0.7718715667724609 0.010480418801307678 255.0 22.0 1.0 1.0
3.9430411 2.3381624 -1.1690527 0.47808772325515747 -0.8772227168083191 -0.04373244568705559 255.0 22.0 1.0 1.0
3.9871981 2.3043551 -1.0480026 0.6043787598609924 -0.7949951887130737 -0.052048180252313614 255.0 23.0 1.0 1.0
3.9594967 2.3439651 -1.0470376 0.41554129123687744 -0.9093732833862305 -0.019122792407870293 255.0 23.0 1.0 1.0
3.9970574 2.3070407 -0.92548257 0.5443501472473145 -0.8379615545272827 -0.038772765547037125 255.0 24.0 1.0 1.0
3.9794304 2.3527365 -0.92697948 0.3941335082054138 -0.9180907011032104 -0.04204878956079483 255.0 24.0 1.0 1.0
3.9909048 2.299545 -0.80009335 0.5313629508018494 -0.8467280268669128 -0.02655356004834175 255.0 25.0 1.0 1.0
3.9699981 2.3431838 -0.8007015 0.36996695399284363 -0.9286925196647644 -0.025584803894162178 255.0 25.0 1.0 1.0
4.0088019 2.3068511 -0.68078363 0.48980414867401123 -0.8717693090438843 -0.010504219681024551 255.0 26.0 1.0 1.0
