ply
format ascii 1.0
element vertex 417
property float x
property float y
property float z
property float nx
property float ny
property float nz
property float intensity
property float ring
property float return
property float label
end_header
-0.92901301 -1.5970099 -0.37223059 -0.0031230614986270666 0.9994273781776428 -0.0336938202381134 255.0 24.0 1.0 1.0
-0.92773402 -1.6339287 -0.3785516 0.01004483737051487 0.9995536208152771 -0.028137225657701492 255.0 24.0 1.0 1.0
-0.92078573 -1.580332 -0.31939346 0.0016901129856705666 0.9990217089653015 -0.044190313667058945 255.0 25.0 1.0 1.0
-0.92367405 -1.6241376 -0.32627526 -0.0043712216429412365 0.9991427659988403 -0.04116489738225937 255.0 25.0 1.0 1.0
-0.93145013 -1.5967067 -0.27375895 0.0041441419161856174 0.998593807220459 -0.05284994840621948 255.0 26.0 1.0 1.0
-0.92447448 -1.6235648 -0.27668908 -0.024408947676420212 0.9979968070983887 -0.058365508913993835 255.0 26.0 1.0 1.0
-0.91120541 -1.5607615 -0.22057894 0.0006495623965747654 0.9997897744178772 -0.020495235919952393 255.0 27.0 1.0 1.0
-0.92234468 -1.6185104 -0.22736369 -0.027220895513892174 0.9994194507598877 -0.02048698253929615 255.0 27.0 1.0 1.0
-0.91860014 -1.5715339 -0.17486249 0.012203135527670383 0.9982057809829712 -0.058618612587451935 255.0 28.0 1.0 1.0
-0.91394013 -1.6018155 -0.17715724 0.002997754840180278 0.9991344213485718 -0.041489116847515106 255.0 28.0 1.0 1.0
-0.91277748 -1.5609502 -0.12700427 0.0005744959926232696 0.9988014101982117 -0.048942241817712784 255.0 29.0 1.0 1.0
-0.90627962 -1.5877482 -0.12840518 0.012192334979772568 0.9973223209381104 -0.07210711389780045 255.0 29.0 1.0 1.0
-0.90429801 -1.5458348 -0.079922318 -0.004610617645084858 0.999557375907898 -0.029386986047029495 255.0 30.0 1.0 1.0
-0.90194106 -1.5795078 -0.081169903 -0.004610617645084858 0.999557375907898 -0.029386986047029495 255.0 30.0 1.0 1.0
-0.90530139 -1.5469301 -0.034345727 -0.011500973254442215 0.9989858865737915 -0.04353126883506775 255.0 31.0 1.0 1.0
-0.89699638 -1.5702134 -0.034651652 0.0089241499081254 0.9970696568489075 -0.07597675919532776 255.0 31.0 1.0 1.0
-0.9151842 -1.0602509 0.0091496594 -0.005237997509539127 0.9996359944343567 -0.026465261355042458 255.0 32.0 1.0 1.0
-0.91436905 -1.0819926 0.0092515387 0.01741965487599373 0.9994980692863464 -0.026461612433195114 255.0 32.0 1.0 1.0
-0.90986896 -1.0533662 0.044535995 0.011866891756653786 0.9982126355171204 -0.05857143551111221 255.0 33.0 1.0 1.0
-0.92720234 -1.0964071 0.045942403 0.011866891756653786 0.9982126355171204 -0.05857143551111221 255.0 33.0 1.0 1.0
-0.89594901 -1.0369066 0.078820273 0.009959366172552109 0.9984495639801025 -0.054764654487371445 255.0 34.0 1.0 1.0
-0.9056896 -1.0706149 0.080656826 0.009959366172552109 0.9984495639801025 -0.054764654487371445 255.0 34.0 1.0 1.0
-0.91519058 -1.0591766 0.1163964 0.005268107168376446 0.998690664768219 -0.05088331550359726 255.0 35.0 1.0 1.0
-0.92208487 -1.0899986 0.11871555 0.005268107168376446 0.998690664768219 -0.05088331550359726 255.0 35.0 1.0 1.0
-0.91070431 -1.0532577 0.15169626 0.0008491631015203893 0.9988852143287659 -0.04719742760062218 255.0 36.0 1.0 1.0
-0.89192456 -1.0536309 0.150392 -0.002330600516870618 0.9989603161811829 -0.045527826994657516 255.0 36.0 1.0 1.0
-0.86928719 -1.004687 0.17945662 0.009532743133604527 0.998175859451294 -0.05961640924215317 255.0 37.0 1.0 1.0
-0.90486157 -1.0681627 0.18909933 0.007761356886476278 0.9981911778450012 -0.05961732193827629 255.0 37.0 1.0 1.0
-0.89495689 -1.0332586 0.22042742 0.0019743572920560837 0.9999754428863525 -0.0067247310653328896 255.0 38.0 1.0 1.0
-0.90453607 -1.0666598 0.22552215 -0.005462557543069124 0.9999624490737915 -0.006724642589688301 255.0 38.0 1.0 1.0
-0.87086576 -1.0044103 0.2496151 0.010819281451404095 0.9987198710441589 -0.04941147565841675 255.0 39.0 1.0 1.0
-0.88575923 -1.0434347 0.25699881 0.010819281451404095 0.9987198710441589 -0.04941147565841675 255.0 39.0 1.0 1.0
-0.8846209 -1.0195609 0.2898486 0.004243767820298672 0.998227059841156 -0.0593695230782032 255.0 40.0 1.0 1.0
-0.87897211 -1.0347248 0.29152587 0.015379191376268864 0.9986749291419983 -0.04911017045378685 255.0 40.0 1.0 1.0
-0.88006479 -1.0128984 0.32492715 -0.001249017077498138 0.9990468621253967 -0.04363219812512398 255.0 41.0 1.0 1.0
-0.87949967 -1.0338968 0.32869181 -0.001249017077498138 0.9990468621253967 -0.04363219812512398 255.0 41.0 1.0 1.0
-0.86985058 -0.99975359 0.35758299 -0.001249138731509447 0.9991443157196045 -0.041340626776218414 255.0 42.0 1.0 1.0
-0.85684037 -1.0058647 0.35653698 -9.975719876820222e-05 0.9991918802261353 -0.04019315913319588 255.0 42.0 1.0 1.0
-0.85412335 -0.97997534 0.38787749 -9.977351146517321e-05 0.9993553161621094 -0.03590208292007446 255.0 43.0 1.0 1.0
-0.87120301 -1.0209253 0.40046236 -0.01802072860300541 0.9983896613121033 -0.0537884421646595 255.0 43.0 1.0 1.0
-0.86792535 -0.9940654 0.43208009 -0.005341540556401014 0.9984157681465149 -0.05601247772574425 255.0 44.0 1.0 1.0
-0.87230504 -1.0204273 0.43954903 -0.01801365427672863 0.9979978799819946 -0.060627393424510956 255.0 44.0 1.0 1.0
-0.85838968 -0.98143673 0.46582082 -0.005469692870974541 0.9990873336791992 -0.04236103966832161 255.0 45.0 1.0 1.0
-0.85543031 -0.99894804 0.46985698 -0.016885798424482346 0.9991504549980164 -0.03759271278977394 255.0 45.0 1.0 1.0
-0.8460052 -0.96526086 0.49746904 -0.007188758347183466 0.9984057545661926 -0.0559852160513401 255.0 46.0 1.0 1.0
-0.87230569 -1.0165046 0.51916063 -0.016858220100402832 0.9975185990333557 -0.06835523247718811 255.0 46.0 1.0 1.0
-0.84492552 -0.96235174 0.53671831 -0.01516718976199627 0.9986788034439087 -0.049096930772066116 255.0 47.0 1.0 1.0
-0.83722115 -0.97393817 0.53826195 -0.0046843551099300385 0.9992425441741943 -0.03863324970006943 255.0 47.0 1.0 1.0
-0.80372417 -1.3922734 0.72761148 0.0074885012581944466 0.9983993768692017 -0.05605998635292053 255.0 48.0 1.0 1.0
-0.80700761 -1.4323505 0.74411237 0.018217409029603004 0.9982038736343384 -0.05707226321101189 255.0 48.0 1.0 1.0
-0.80445439 -1.3969086 0.78414446 0.013842864893376827 0.9976674914360046 -0.06684303283691406 255.0 49.0 1.0 1.0
-0.79508686 -1.4146547 0.78939611 0.013842864893376827 0.9976674914360046 -0.06684303283691406 255.0 49.0 1.0 1.0
-0.79500496 -1.384407 0.83275205 0.0015794839709997177 0.9974659085273743 -0.07112837582826614 255.0 50.0 1.0 1.0
-0.79435432 -1.4173945 0.84755802 0.0015794839709997177 0.9974659085273743 -0.07112837582826614 255.0 50.0 1.0 1.0
-0.78768253 -1.376655 0.88560963 -0.009108065627515316 0.9982547163963318 -0.05834933742880821 255.0 51.0 1.0 1.0
-0.78005314 -1.3970151 0.89341331 0.016239456832408905 0.9978137016296387 -0.06406426429748535 255.0 51.0 1.0 1.0
-0.77789736 -1.363965 0.93707091 0.008150948211550713 0.99812251329422 -0.06070242077112198 255.0 52.0 1.0 1.0
-0.77361375 -1.3900326 0.94937509 0.008150948211550713 0.99812251329422 -0.06070242077112198 255.0 52.0 1.0 1.0
-0.76998752 -1.3555821 0.99329823 0.007930193096399307 0.9975380301475525 -0.06967858225107193 255.0 53.0 1.0 1.0
-0.76067591 -1.3724122 0.999749 -0.004148281179368496 0.9965513348579407 -0.08287566900253296 255.0 53.0 1.0 1.0
-0.75867707 -1.3422019 1.0485177 0.00942186452448368 0.9996695518493652 -0.023915916681289673 255.0 54.0 1.0 1.0
-0.75258797 -1.3645424 1.0597692 0.0023934149648994207 0.9973251223564148 -0.07305451482534409 255.0 54.0 1.0 1.0
-0.74776006 -1.3293725 1.1068155 -0.003558772848919034 0.9977377653121948 -0.06713156402111053 255.0 55.0 1.0 1.0
-0.75095356 -1.3683321 1.1326668 0.003644729033112526 0.9985997676849365 -0.05277638882398605 255.0 55.0 1.0 1.0
-0.73633438 -1.3171074 1.1685184 0.0041976198554039 0.999459445476532 -0.03260624781250954 250.0 56.0 1.0 1.0
-0.7376672 -1.3524936 1.1930176 0.0012739879311993718 0.9993679523468018 -0.035526517778635025 250.0 56.0 1.0 1.0
-0.73037905 -1.3155872 1.2441856 -0.0017226042691618204 0.9987220764160156 -0.050510700792074203 247.0 57.0 1.0 1.0
-0.72539353 -1.3394129 1.2594843 0.0012367513263598084 0.9993621706962585 -0.03569001331925392 247.0 57.0 1.0 1.0
-0.72520232 -1.3154252 1.3272747 0.008984952233731747 0.9992320537567139 -0.03813755884766579 253.0 58.0 1.0 1.0
-0.71425074 -1.3282149 1.3325741 -0.005435731261968613 0.9989570379257202 -0.04533618688583374 241.0 58.0 1.0 1.0
-0.71776557 -1.313273 1.4161967 0.00969125796109438 0.9991084933280945 -0.04108832776546478 255.0 59.0 1.0 1.0
-0.70126522 -1.3155798 1.4106972 -0.006950293201953173 0.998237669467926 -0.058933500200510025 244.0 59.0 1.0 1.0
-0.69696611 -1.2890584 1.4880008 0.011922094039618969 0.9990129470825195 -0.042790576815605164 247.0 60.0 1.0 1.0
-0.69785398 -1.3235754 1.5193592 -0.003316018497571349 0.9973151087760925 -0.07315360009670258 253.0 60.0 1.0 1.0
-0.69470268 -1.3010643 1.6113073 -0.004042481537908316 0.9981107711791992 -0.061308082193136215 255.0 61.0 1.0 1.0
-0.6860553 -1.3178341 1.6231132 -0.004042481537908316 0.9981107711791992 -0.061308082193136215 255.0 61.0 1.0 1.0
-0.67138344 -1.2749715 1.6998396 -0.01230156421661377 0.9981128573417664 -0.06016144901514053 247.0 62.0 1.0 1.0
-0.67337769 -1.3118212 1.7395153 0.01794610358774662 0.9988441467285156 -0.044589731842279434 255.0 62.0 1.0 1.0
-0.65657383 -1.268725 1.8284951 -0.05868984013795853 0.9527460932731628 -0.2980441153049469 255.0 63.0 1.0 1.0
-0.63884598 -1.2667252 1.8158854 0.20953302085399628 0.4707707166671753 -0.8570126891136169 255.0 63.0 1.0 1.0
-1.0103737 -1.1460266 -0.93759578 0.012068032287061214 0.9995971322059631 -0.025689683854579926 255.0 11.0 1.0 1.0
-1.0317345 -1.1952491 -0.96899033 0.04555962234735489 0.9980611801147461 -0.04240531474351883 255.0 11.0 2.0 1.0
-0.37661907 -0.37955588 -0.70448244 0.08934292197227478 0.8219373226165771 0.5625272393226624 253.0 0.0 1.0 1.0
-0.37262279 -0.3834824 -0.70448428 0.22691117227077484 0.8856630325317383 0.40510764718055725 247.0 0.0 1.0 1.0
-0.40619257 -0.41495392 -0.70382363 0.0924876406788826 0.13686951994895935 0.9862619638442993 255.0 1.0 1.0 1.0
-0.3983005 -0.41551736 -0.69765222 0.1519179493188858 0.195516899228096 0.9688622355461121 244.0 1.0 1.0 1.0
-0.42965269 -0.44368839 -0.69323307 0.15249882638454437 -0.06835120916366577 0.9859372973442078 244.0 2.0 1.0 1.0
-0.42131966 -0.44430929 -0.6872595 0.15249882638454437 -0.06835120916366577 0.9859372973442078 238.0 2.0 1.0 1.0
-0.46026355 -0.47995329 -0.69304502 0.13927814364433289 -5.0170150643680245e-05 0.9902532696723938 241.0 3.0 1.0 1.0
-0.45521161 -0.48475006 -0.69304711 0.13927814364433289 -5.0170150643680245e-05 0.9902532696723938 238.0 3.0 1.0 1.0
-0.4986459 -0.52414817 -0.70261592 0.08978555351495743 0.07784540206193924 0.9929142594337463 253.0 4.0 1.0 1.0
-0.4911727 -0.52724671 -0.69983023 0.08978555351495743 0.07784540206193924 0.9929142594337463 250.0 4.0 1.0 1.0
-0.52119631 -0.55169046 -0.68818301 0.1242937371134758 0.07755497097969055 0.9892099499702454 235.0 5.0 1.0 1.0
-0.52545333 -0.56798869 -0.70162511 0.1242937371134758 0.07755497097969055 0.9892099499702454 253.0 5.0 1.0 1.0
-0.5682295 -0.60524273 -0.70403123 0.14246800541877747 0.056893639266490936 0.9881628751754761 255.0 6.0 1.0 1.0
-0.56185943 -0.61116338 -0.70403373 0.14246800541877747 0.056893639266490936 0.9881628751754761 253.0 6.0 1.0 1.0
-0.60961747 -0.65272188 -0.70930964 0.1482708603143692 0.047450095415115356 0.9878078103065491 255.0 7.0 1.0 1.0
-0.60486221 -0.66138345 -0.71180093 0.1482708603143692 0.047450095415115356 0.9878078103065491 255.0 7.0 1.0 1.0
-0.6447469 -0.69347 -0.7050302 0.13247637450695038 0.06543998420238495 0.9890235662460327 255.0 8.0 1.0 1.0
-0.64393002 -0.70730025 -0.71220207 0.07035131752490997 0.0347517728805542 0.9969167709350586 255.0 8.0 1.0 1.0
-0.68195355 -0.73682016 -0.70110613 -0.1706915646791458 0.09383995085954666 0.9808458685874939 255.0 9.0 1.0 1.0
-0.68080777 -0.75121087 -0.707982 -0.17169134318828583 0.09050197154283524 0.9809849262237549 255.0 9.0 1.0 1.0
-0.72649151 -0.7874018 -0.70144963 -0.08732743561267853 0.028901413083076477 0.9957603216171265 255.0 10.0 1.0 1.0
-0.69800997 -0.77263111 -0.68172634 -0.08732743561267853 0.028901413083076477 0.9957603216171265 220.0 10.0 1.0 1.0
-1.0087814 -1.0970032 -0.9145605 0.03578483685851097 0.9992865324020386 0.012079199776053429 255.0 11.0 1.0 1.0
-1.0154885 -1.1277736 -0.93130606 0.10049634426832199 0.994864821434021 0.012025751173496246 255.0 11.0 1.0 1.0
-1.0199317 -1.1126494 -0.86680001 0.01860402338206768 0.9995160698890686 -0.02493174746632576 255.0 12.0 1.0 1.0
-1.0082214 -1.1232736 -0.86680424 0.01860402338206768 0.9995160698890686 -0.02493174746632576 255.0 12.0 1.0 1.0
-0.98955142 -1.082198 -0.78769326 0.012054898776113987 0.9997411370277405 -0.0192949790507555 255.0 13.0 1.0 1.0
-0.99697089 -1.1135008 -0.80284405 0.029655560851097107 0.9993718862533569 -0.01940104365348816 255.0 13.0 1.0 1.0
-0.99807191 -1.0938303 -0.74274164 0.010767861269414425 0.9993353486061096 -0.03482770547270775 255.0 14.0 1.0 1.0
-1.0008572 -1.1202188 -0.75350922 -0.0024496554397046566 0.9999616146087646 -0.008400959894061089 255.0 14.0 1.0 1.0
-0.9908309 -1.088205 -0.68801439 -0.007599832955747843 0.9966443777084351 -0.08150015026330948 255.0 15.0 1.0 1.0
-0.98420417 -1.1039325 -0.69140744 0.029326675459742546 0.9962444305419922 -0.08146743476390839 255.0 15.0 1.0 1.0
-0.98567587 -1.6418189 -0.83387542 -6.25174434389919e-05 0.9989245533943176 -0.0463641919195652 255.0 16.0 1.0 1.0
-0.9814111 -1.6741993 -0.84505689 -0.003219867590814829 0.9985278844833374 -0.05414555221796036 255.0 16.0 1.0 1.0
-0.97767788 -1.6246449 -0.76505226 -0.008500232361257076 0.9957097172737122 -0.09214063733816147 255.0 17.0 1.0 1.0
-0.97000754 -1.6507869 -0.77253759 -0.017473625019192696 0.9963767528533936 -0.08323465287685394 255.0 17.0 1.0 1.0
-0.97838002 -1.6213264 -0.70509166 -0.00588476425036788 0.9995445609092712 -0.029598107561469078 255.0 18.0 1.0 1.0
-0.97276783 -1.6508616 -0.71346831 0.0182016771286726 0.9993963241577148 -0.02959371730685234 255.0 18.0 1.0 1.0
-0.96206832 -1.5905373 -0.63603032 -0.0006208151462487876 0.9990676045417786 -0.043168604373931885 255.0 19.0 1.0 1.0
-0.9723109 -1.6461436 -0.6541639 -0.00588476425036788 0.9995445609092712 -0.029598107561469078 255.0 19.0 1.0 1.0
-0.96591389 -1.5937531 -0.58299822 0.002060682512819767 0.9991778135299683 -0.04049179330468178 255.0 20.0 1.0 1.0
-0.96278495 -1.626778 -0.59136021 0.005021607503294945 0.9993892908096313 -0.034579385071992874 255.0 20.0 1.0 1.0
-0.948946 -1.5626891 -0.51968056 -0.006400857586413622 0.9988123774528503 -0.04830082505941391 255.0 21.0 1.0 1.0
-0.9521603 -1.6056339 -0.53061998 -0.006400857586413622 0.9988123774528503 -0.04830082505941391 255.0 21.0 1.0 1.0
-0.95104903 -1.5630777 -0.46839643 -0.004869197495281696 0.9986736178398132 -0.051257453858852386 255.0 22.0 1.0 1.0
-0.93859053 -1.5796148 -0.47038114 0.006437403149902821 0.9992462992668152 -0.03828001767396927 255.0 22.0 1.0 1.0
-0.93379194 -1.5323163 -0.41004872 -0.004872940015047789 0.9994412064552307 -0.03306880220770836 255.0 23.0 1.0 1.0
-0.94362831 -1.5855705 -0.42163542 -0.0005496889934875071 0.999704122543335 -0.024317463859915733 255.0 23.0 1.0 1.0
-0.9336763 -1.5303248 -0.3611497 -0.002911242423579097 0.9995906352996826 -0.028462978079915047 255.0 24.0 1.0 1.0
-0.93567115 -1.5703337 -0.36826101 0.016963694244623184 0.999309241771698 -0.03306443616747856 255.0 24.0 1.0 1.0
-0.92903727 -1.5203383 -0.31111637 -0.011374332942068577 0.9988455772399902 -0.04667164012789726 255.0 25.0 1.0 1.0
-0.92114836 -1.5435178 -0.31386936 0.003399929031729698 0.9998472332954407 -0.017147131264209747 255.0 25.0 1.0 1.0
-0.93578571 -1.5295806 -0.2655353 -0.004507272969931364 0.9989370703697205 -0.045875079929828644 255.0 26.0 1.0 1.0
-0.93393099 -1.5630716 -0.26963776 0.0041441419161856174 0.998593807220459 -0.05284994840621948 255.0 26.0 1.0 1.0
-0.91260028 -1.4905285 -0.213291 -0.0017608802299946547 0.9989073872566223 -0.04669983312487602 255.0 27.0 1.0 1.0
-0.92140484 -1.5408932 -0.2191065 0.013759060762822628 0.9988144636154175 -0.046695489436388016 255.0 27.0 1.0 1.0
-0.92010391 -1.5010177 -0.16910677 -0.009083365090191364 0.9982389807701111 -0.05862056091427803 255.0 28.0 1.0 1.0
-0.90843183 -1.5174022 -0.16987199 0.012203135527670383 0.9982057809829712 -0.058618612587451935 255.0 28.0 1.0 1.0
-0.91398382 -1.4904554 -0.12278269 0.0056801182217895985 0.9987855553627014 -0.048941463232040405 255.0 29.0 1.0 1.0
-0.91473716 -1.5273273 -0.12502441 0.001695303712040186 0.9971060156822205 -0.07600479573011398 255.0 29.0 1.0 1.0
-0.8988632 -1.4652342 -0.076695815 0.008208390325307846 0.999466598033905 -0.03160786256194115 255.0 30.0 1.0 1.0
-0.9101823 -1.519124 -0.079012796 0.004886578768491745 0.9997940063476562 -0.01969677209854126 255.0 30.0 1.0 1.0
-0.90193921 -1.4696736 -0.033026874 0.014626435935497284 0.9989451766014099 -0.04352949187159538 255.0 31.0 1.0 1.0
-0.89473307 -1.4927564 -0.033333108 -0.011500973254442215 0.9989858865737915 -0.04353126883506775 255.0 31.0 1.0 1.0
-0.90773857 -1.0081452 0.0088806543 0.00526824314147234 0.9987165927886963 -0.05037201568484306 255.0 32.0 1.0 1.0
-0.90772349 -1.0295925 0.0089825392 -0.005237997509539127 0.9996359944343567 -0.026465261355042458 255.0 32.0 1.0 1.0
-0.92102128 -1.0221856 0.044044327 0.00526824314147234 0.9987165927886963 -0.05037201568484306 255.0 33.0 1.0 1.0
-0.90498334 -1.0257777 0.043784145 -0.012504350394010544 0.9982774257659912 -0.05732221528887749 255.0 33.0 1.0 1.0
-0.90944344 -1.0090023 0.078151062 0.009211082011461258 0.9984568357467651 -0.05476505681872368 255.0 34.0 1.0 1.0
-0.91205204 -1.0334356 0.079297625 0.009211082011461258 0.9984568357467651 -0.05476505681872368 255.0 34.0 1.0 1.0
-0.89979535 -0.99831742 0.1117716 0.006522146984934807 0.9995283484458923 -0.030010171234607697 255.0 35.0 1.0 1.0
-0.90513134 -1.0256113 0.11375912 0.003321552649140358 0.9989790320396423 -0.045053787529468536 255.0 35.0 1.0 1.0
-0.91391116 -1.0132731 0.14868183 0.009537683799862862 0.9986932277679443 -0.05020934343338013 255.0 36.0 1.0 1.0
-0.90062636 -1.0198056 0.14824447 0.006517814937978983 0.9988644123077393 -0.04719644784927368 255.0 36.0 1.0 1.0
-0.88747597 -0.9833039 0.17894101 0.00923694483935833 0.998600423336029 -0.052076615393161774 255.0 37.0 1.0 1.0
-0.89552009 -1.0133276 0.18268904 0.009532743133604527 0.998175859451294 -0.05961640924215317 255.0 37.0 1.0 1.0
-0.89256096 -0.98790902 0.21471238 0.009245780296623707 0.9995555877685547 -0.0283383559435606 255.0 38.0 1.0 1.0
-0.89264613 -1.0090265 0.21725804 0.011800719425082207 0.9993680715560913 -0.03352877125144005 255.0 38.0 1.0 1.0
-0.89434069 -0.98885149 0.25037429 0.010819281451404095 0.9987198710441589 -0.04941147565841675 255.0 39.0 1.0 1.0
-0.88394696 -0.99815953 0.25037062 0.010819281451404095 0.9987198710441589 -0.04941147565841675 255.0 39.0 1.0 1.0
-0.87689632 -0.96890903 0.28062487 0.005504838656634092 0.9987121820449829 -0.05043497309088707 255.0 40.0 1.0 1.0
-0.8848744 -0.99851805 0.28650403 0.004243767820298672 0.998227059841156 -0.0593695230782032 255.0 40.0 1.0 1.0
-0.89063013 -0.98271149 0.32117945 0.005506603978574276 0.9990324378013611 -0.04363156482577324 255.0 41.0 1.0 1.0
-0.88030201 -0.99198025 0.32117581 0.005506603978574276 0.9990324378013611 -0.04363156482577324 255.0 41.0 1.0 1.0
-0.85683858 -0.94413745 0.34404728 -0.00535826338455081 0.9991307258605957 -0.04134006425738335 255.0 42.0 1.0 1.0
-0.87514234 -0.98479909 0.3555142 -0.00535826338455081 0.9991307258605957 -0.04134006425738335 255.0 42.0 1.0 1.0
-0.87444848 -0.96185845 0.38789755 -0.005356903187930584 0.9988771677017212 -0.04707205295562744 255.0 43.0 1.0 1.0
-0.87453717 -0.98240709 0.3924717 0.0002367755805607885 0.9993552565574646 -0.03590208292007446 255.0 43.0 1.0 1.0
-0.86805922 -0.95317936 0.4221369 -0.005341540556401014 0.9984157681465149 -0.05601247772574425 255.0 44.0 1.0 1.0
-0.86057335 -0.96504927 0.42337877 -0.005341540556401014 0.9984157681465149 -0.05601247772574425 255.0 44.0 1.0 1.0
-0.85588819 -0.93819404 0.45372194 -0.009578836150467396 0.9990282654762268 -0.04302025958895683 255.0 45.0 1.0 1.0
-0.86862004 -0.97237527 0.46583733 -0.005469692870974541 0.9990873336791992 -0.04236103966832161 255.0 45.0 1.0 1.0
-0.86350328 -0.94456619 0.49604252 -0.007188758347183466 0.9984057545661926 -0.0559852160513401 255.0 46.0 1.0 1.0
-0.86353081 -0.96466374 0.50182444 -0.007188758347183466 0.9984057545661926 -0.0559852160513401 255.0 46.0 1.0 1.0
-0.86238712 -0.94171262 0.53519112 -0.00819933507591486 0.9984539151191711 -0.05497768893837929 255.0 47.0 1.0 1.0
-0.83771151 -0.93421298 0.52590567 -0.015063941478729248 0.9983947277069092 -0.05460018664598465 255.0 47.0 1.0 1.0
-0.80248588 -1.3252586 0.70122653 0.002956412499770522 0.997995913028717 -0.06321050226688385 255.0 48.0 1.0 1.0
-0.81084162 -1.3712171 0.72102761 0.0036673920694738626 0.9980318546295166 -0.06260155886411667 255.0 48.0 1.0 1.0
-0.79631287 -1.3181794 0.74915093 -0.0038417447358369827 0.9979301691055298 -0.06419141590595245 255.0 49.0 1.0 1.0
-0.80624485 -1.3667066 0.77190739 0.008810135535895824 0.998292088508606 -0.05775121599435806 255.0 49.0 1.0 1.0
-0.80001169 -1.3279594 0.80870879 0.005682212300598621 0.9981983304023743 -0.05973178520798683 255.0 50.0 1.0 1.0
-0.79327267 -1.3484818 0.81611168 0.0063113002106547356 0.998217761516571 -0.0593407116830349 255.0 50.0 1.0 1.0
-0.79115337 -1.3179343 0.85831386 0.005366354249417782 0.998281717300415 -0.05835091695189476 255.0 51.0 1.0 1.0
-0.78792447 -1.3442135 0.87001896 0.007918091490864754 0.9970743656158447 -0.07602623850107193 255.0 51.0 1.0 1.0
-0.7868678 -1.3149505 0.91452968 0.017706967890262604 0.9976032972335815 -0.06688914448022842 255.0 52.0 1.0 1.0
-0.78173846 -1.3379353 0.92478299 0.007797876372933388 0.9981058835983276 -0.06102205812931061 255.0 52.0 1.0 1.0
-0.77745742 -1.3043845 0.96751201 0.004629532806575298 0.9983367323875427 -0.05746600776910782 255.0 53.0 1.0 1.0
-0.76716834 -1.3182763 0.97181237 0.007930193096399307 0.9975380301475525 -0.06967858225107193 255.0 53.0 1.0 1.0
-0.76803154 -1.2947255 1.0237811 0.00010026412201113999 0.9988174438476562 -0.04861753061413765 255.0 54.0 1.0 1.0
-0.76274031 -1.316996 1.0350322 -0.0012993448181077838 0.9993994235992432 -0.03462814912199974 255.0 54.0 1.0 1.0
-0.76059675 -1.2883284 1.08568 0.006732087582349777 0.9991867542266846 -0.039756014943122864 255.0 55.0 1.0 1.0
-0.75355136 -1.3074301 1.0950805 -0.003990853670984507 0.9977216124534607 -0.06734654307365417 255.0 55.0 1.0 1.0
-0.74772084 -1.2741214 1.1440346 -0.0059505910612642765 0.9979683756828308 -0.06343387067317963 253.0 56.0 1.0 1.0
-0.74379194 -1.2983323 1.158734 0.004193877801299095 0.9985685348510742 -0.05332399904727936 250.0 56.0 1.0 1.0
-0.74532121 -1.2786949 1.2238028 0.006766519043594599 0.9987762570381165 -0.04899092763662338 255.0 57.0 1.0 1.0
-0.7410596 -1.3024909 1.2391013 0.006768848747014999 0.9991202354431152 -0.04138806834816933 255.0 57.0 1.0 1.0
-0.72853065 -1.258449 1.2848989 0.0016982026863843203 0.9988111257553101 -0.04871639609336853 255.0 58.0 1.0 1.0
-0.72860676 -1.2894782 1.3087438 0.008093581534922123 0.999170184135437 -0.03991682454943657 253.0 58.0 1.0 1.0
-0.71614772 -1.247568 1.3612101 0.010994832031428814 0.9972967505455017 -0.0726526752114296 250.0 59.0 1.0 1.0
-0.71868831 -1.2828609 1.391461 0.00969125796109438 0.9991084933280945 -0.04108832776546478 250.0 59.0 1.0 1.0
-0.70713758 -1.244898 1.453806 -0.004899431020021439 0.9999846816062927 -0.002600207459181547 253.0 60.0 1.0 1.0
-0.70905465 -1.2792166 1.4851645 -0.004693693481385708 0.9986833930015564 -0.05108238384127617 255.0 60.0 1.0 1.0
-0.69664651 -1.2414902 1.5552473 0.027514910325407982 0.9978074431419373 -0.060192909091711044 255.0 61.0 1.0 1.0
-0.69660336 -1.2723863 1.5847604 -0.012912952341139317 0.9978918433189392 -0.06360089778900146 255.0 61.0 1.0 1.0
-0.68787277 -1.2425306 1.6754378 0.0008831332088448107 0.9994268417358398 -0.033838942646980286 255.0 62.0 1.0 1.0
-0.68222469 -1.2633024 1.6937499 0.0008831332088448107 0.9994268417358398 -0.033838942646980286 255.0 62.0 1.0 1.0
-0.67118084 -1.2330722 1.7969812 0.1705075353384018 0.9639456868171692 -0.20429372787475586 255.0 63.0 1.0 1.0
-0.66056955 -1.2443677 1.8032873 0.1705075353384018 0.9639456868171692 -0.20429372787475586 255.0 63.0 1.0 1.0
-0.38275656 -0.36989486 -0.70128572 0.15540526807308197 0.135788694024086 0.9784736633300781 255.0 0.0 1.0 1.0
-0.38574696 -0.3806712 -0.71403706 0.08934292197227478 0.8219373226165771 0.5625272393226624 255.0 0.0 1.0 1.0
-0.40752977 -0.39922699 -0.69146717 0.0924876406788826 0.13686951994895935 0.9862619638442993 250.0 1.0 1.0 1.0
-0.40512604 -0.405274 -0.69455576 0.0924876406788826 0.13686951994895935 0.9862619638442993 244.0 1.0 1.0 1.0
-0.4445346 -0.44019043 -0.70218569 0.15249882638454437 -0.06835120916366577 0.9859372973442078 250.0 2.0 1.0 1.0
-0.4380284 -0.44293487 -0.69920015 0.15249882638454437 -0.06835120916366577 0.9859372973442078 250.0 2.0 1.0 1.0
-0.47414309 -0.47410765 -0.69880849 0.13927814364433289 -5.0170150643680245e-05 0.9902532696723938 247.0 3.0 1.0 1.0
-0.46721339 -0.47707355 -0.69592339 0.13927814364433289 -5.0170150643680245e-05 0.9902532696723938 241.0 3.0 1.0 1.0
-0.50346214 -0.50747037 -0.69424027 0.14083752036094666 0.10732642561197281 0.9841980934143066 250.0 4.0 1.0 1.0
-0.4981195 -0.51271802 -0.69424266 0.11949902027845383 0.10763013362884521 0.9869831800460815 247.0 4.0 1.0 1.0
-0.53472859 -0.54274881 -0.6908583 0.11990496516227722 0.06969515979290009 0.990336000919342 244.0 5.0 1.0 1.0
-0.52901489 -0.5483219 -0.69086081 0.11990496516227722 0.06969515979290009 0.990336000919342 244.0 5.0 1.0 1.0
-0.57225502 -0.58448142 -0.69366533 0.13699260354042053 0.04657883942127228 0.9894763231277466 253.0 6.0 1.0 1.0
-0.57666117 -0.60144788 -0.70660836 0.13699260354042053 0.04657883942127228 0.9894763231277466 255.0 6.0 1.0 1.0
-0.61442387 -0.63082612 -0.699341 0.1433049440383911 0.04865748807787895 0.9884817004203796 255.0 7.0 1.0 1.0
-0.60129625 -0.63043326 -0.6918782 0.14331944286823273 0.046536725014448166 0.9885817170143127 253.0 7.0 1.0 1.0
-0.65691 -0.67749661 -0.70262504 0.1301392763853073 0.046252720057964325 0.9904162883758545 255.0 8.0 1.0 1.0
-0.64756876 -0.68201661 -0.70023841 0.1301392763853073 0.046252720057964325 0.9904162883758545 255.0 8.0 1.0 1.0
-0.69725055 -0.7223596 -0.70108986 0.08874102681875229 0.06379038840532303 0.9940100312232971 255.0 9.0 1.0 1.0
-0.68964702 -0.72962481 -0.70109302 -0.1711064577102661 0.06309857964515686 0.9832299947738647 255.0 9.0 1.0 1.0
-0.7451601 -0.77440685 -0.70362407 -0.13736754655838013 0.05210259184241295 0.9891489148139954 255.0 10.0 1.0 1.0
-0.7393043 -0.78460544 -0.70581925 -0.13749755918979645 0.028736691921949387 0.9900851845741272 255.0 10.0 1.0 1.0
-0.73889297 -0.77060491 -0.65505373 -0.1077142208814621 0.010612471960484982 0.9941253066062927 38.0 11.0 1.0 1.0
-1.0038978 -1.0689706 -0.89989305 -0.10650238394737244 0.149948388338089 0.9829408526420593 255.0 11.0 2.0 1.0
-1.0142663 -1.0609446 -0.84286678 0.012054313905537128 0.9996927380561829 -0.021659646183252335 255.0 12.0 1.0 1.0
-1.003098 -1.071512 -0.84287131 0.012054313905537128 0.9996927380561829 -0.021659646183252335 255.0 12.0 1.0 1.0
-1.0047247 -1.0535663 -0.78199011 0.014709324575960636 0.9995201230049133 -0.02726198174059391 255.0 13.0 1.0 1.0
-1.0032573 -1.0743324 -0.78956771 0.012054898776113987 0.9997411370277405 -0.0192949790507555 255.0 13.0 1.0 1.0
-0.99366444 -1.0441839 -0.72298586 0.01106042880564928 0.9987245798110962 -0.04926295951008797 255.0 14.0 1.0 1.0
-0.99974072 -1.0728401 -0.73554724 -0.0033983655739575624 0.9993875622749329 -0.0348295234143734 255.0 14.0 1.0 1.0
-1.0034409 -1.0566865 -0.6812135 -0.007623990997672081 0.9998124837875366 -0.01779760606586933 255.0 15.0 1.0 1.0
-0.99231976 -1.0671397 -0.68121797 -0.007623990997672081 0.9998124837875366 -0.01779760606586933 255.0 15.0 1.0 1.0
-0.98471361 -1.5649283 -0.80510354 0.004214633721858263 0.997668445110321 -0.06811640411615372 255.0 16.0 1.0 1.0
-0.98555779 -1.6032735 -0.81947982 -0.008835997432470322 0.9984409213066101 -0.05511527135968208 255.0 16.0 1.0 1.0
-0.97589302 -1.5473224 -0.73808587 -0.0009365038713440299 0.9991677403450012 -0.040778860449790955 255.0 17.0 1.0 1.0
-0.98299009 -1.595353 -0.75605041 -0.005881188437342644 0.99893718957901 -0.045714352279901505 255.0 17.0 1.0 1.0
-0.97207046 -1.5371023 -0.67715013 -0.004784700460731983 0.9995173811912537 -0.030697206035256386 255.0 18.0 1.0 1.0
-0.969715 -1.5695211 -0.68692315 -0.004784700460731983 0.9995173811912537 -0.030697206035256386 255.0 18.0 1.0 1.0
-0.95668924 -1.5092918 -0.61140132 0.021506834775209427 0.9979932308197021 -0.05955629423260689 255.0 19.0 1.0 1.0
-0.95677567 -1.5449678 -0.62176365 -0.0006208151462487876 0.9990676045417786 -0.043168604373931885 255.0 19.0 1.0 1.0
-0.96225786 -1.5151534 -0.56147712 0.004674459807574749 0.9996730089187622 -0.025141853839159012 255.0 20.0 1.0 1.0
-0.95841849 -1.5446104 -0.56864476 0.018874425441026688 0.998664915561676 -0.04808538779616356 255.0 20.0 1.0 1.0
-0.95256406 -1.4970113 -0.50434625 0.007825092412531376 0.9998745918273926 -0.01377292163670063 255.0 21.0 1.0 1.0
-0.94293278 -1.516708 -0.50762862 -0.0008737595635466278 0.9995286464691162 -0.030685918405652046 255.0 21.0 1.0 1.0
-0.95025998 -1.4905225 -0.45250151 0.011187676340341568 0.9989243149757385 -0.04500085487961769 255.0 22.0 1.0 1.0
-0.94689697 -1.5201262 -0.45845535 0.004662887658923864 0.999117374420166 -0.041746001690626144 255.0 22.0 1.0 1.0
-0.93421233 -1.4631097 -0.39666072 0.010231003165245056 0.9993444085121155 -0.03472822159528732 255.0 23.0 1.0 1.0
-0.94155174 -1.509203 -0.4064649 0.0008165540639311075 0.9993546605110168 -0.0359104759991169 255.0 23.0 1.0 1.0
-0.93173951 -1.4575597 -0.34848884 0.01057326328009367 0.9998733401298523 -0.011898553930222988 255.0 24.0 1.0 1.0
-0.93512803 -1.497167 -0.35560024 0.01057326328009367 0.9998733401298523 -0.011898553930222988 255.0 24.0 1.0 1.0
-0.93306386 -1.4573927 -0.3021512 0.004295311868190765 0.99897301197052 -0.04510415717959404 255.0 25.0 1.0 1.0
-0.93656701 -1.4971468 -0.30834505 0.013633068650960922 0.9978733658790588 -0.06373949348926544 255.0 25.0 1.0 1.0
-0.91423625 -1.4263545 -0.25086609 0.014969411306083202 0.9987877607345581 -0.04689178243279457 255.0 26.0 1.0 1.0
-0.92656338 -1.4794412 -0.2584846 -0.004507272969931364 0.9989370703697205 -0.045875079929828644 255.0 26.0 1.0 1.0
-0.92433071 -1.4409952 -0.20891069 -0.004097614903002977 0.9994055032730103 -0.03422996401786804 255.0 27.0 1.0 1.0
-0.91552281 -1.4606875 -0.21036516 0.011275889351963997 0.997827410697937 -0.06491000205278397 255.0 27.0 1.0 1.0
-0.91906905 -1.431151 -0.16335133 0.010241886600852013 0.9979987740516663 -0.06239864230155945 255.0 28.0 1.0 1.0
-0.90403771 -1.4406962 -0.16335215 -0.009083365090191364 0.9982389807701111 -0.05862056091427803 255.0 28.0 1.0 1.0
-0.91265005 -1.4206177 -0.11856142 0.0002747354155872017 0.9984033703804016 -0.0564848966896534 255.0 29.0 1.0 1.0
-0.90197372 -1.4368544 -0.11912251 0.0056801182217895985 0.9987855553627014 -0.048941463232040405 255.0 29.0 1.0 1.0
-0.91423452 -1.4225416 -0.075429626 0.009196922183036804 0.9996680617332458 -0.024066319689154625 255.0 30.0 1.0 1.0
-0.9099229 -1.4489549 -0.076321252 0.009196922183036804 0.9996680617332458 -0.024066319689154625 255.0 30.0 1.0 1.0
-0.90873212 -1.4134446 -0.032167051 0.014626435935497284 0.9989451766014099 -0.04352949187159538 255.0 31.0 1.0 1.0
-0.89814425 -1.4296541 -0.032320727 0.014626435935497284 0.9989451766014099 -0.04352949187159538 255.0 31.0 1.0 1.0
-0.90674114 -0.96557623 0.0086903321 -0.0007532010204158723 0.9987203478813171 -0.05056646093726158 255.0 32.0 1.0 1.0
-0.90200418 -0.9809041 0.0087393066 0.006920820102095604 0.9992932677268982 -0.036948129534721375 255.0 32.0 1.0 1.0
-0.90114677 -0.95896578 0.042141538 -0.005736357532441616 0.9982196092605591 -0.059369128197431564 255.0 33.0 1.0 1.0
-0.9181428 -0.99775976 0.043420494 0.00526824314147234 0.9987165927886963 -0.05037201568484306 255.0 33.0 1.0 1.0
-0.90848553 -0.96644735 0.076331511 0.00526824314147234 0.9987165927886963 -0.05037201568484306 255.0 34.0 1.0 1.0
-0.90102893 -0.97884321 0.076557696 -0.011590397916734219 0.9970119595527649 -0.07637203484773636 255.0 34.0 1.0 1.0
-0.90138519 -0.95891243 0.10946926 0.003321552649140358 0.9989790320396423 -0.045053787529468536 255.0 35.0 1.0 1.0
-0.91560721 -0.99468559 0.11245264 0.003321552649140358 0.9989790320396423 -0.045053787529468536 255.0 35.0 1.0 1.0
-0.88587159 -0.94177395 0.14089608 0.003323569893836975 0.999585747718811 -0.02858944609761238 255.0 36.0 1.0 1.0
-0.90561348 -0.98316038 0.14566322 -0.00887623243033886 0.9986992478370667 -0.050209641456604004 255.0 36.0 1.0 1.0
-0.91058689 -0.96737182 0.17949796 -0.008852901868522167 0.9960742592811584 -0.08807786554098129 255.0 37.0 1.0 1.0
-0.88697952 -0.9622823 0.17681396 0.00923694483935833 0.998600423336029 -0.052076615393161774 255.0 37.0 1.0 1.0
-0.87512362 -0.92875886 0.20580989 0.009245780296623707 0.9995555877685547 -0.0283383559435606 255.0 38.0 1.0 1.0
-0.89750403 -0.97268653 0.21345468 0.009245780296623707 0.9995555877685547 -0.0283383559435606 255.0 38.0 1.0 1.0
-0.87707114 -0.92986381 0.24005173 0.012525706551969051 0.9990323185920715 -0.04215926304459572 255.0 39.0 1.0 1.0
-0.89130974 -0.96497756 0.24669729 0.010827437974512577 0.9994727969169617 -0.030608724802732468 255.0 39.0 1.0 1.0
-0.87550598 -0.92757165 0.27392191 0.012519746087491512 0.9985568523406982 -0.05222459137439728 255.0 40.0 1.0 1.0
-0.87903166 -0.95104092 0.27812031 0.005504838656634092 0.9987121820449829 -0.05043497309088707 255.0 40.0 1.0 1.0
-0.88963723 -0.94123304 0.31366333 -0.002611181465908885 0.9996207356452942 -0.027415189892053604 255.0 41.0 1.0 1.0
-0.8850261 -0.95619845 0.31554371 -0.002611181465908885 0.9996207356452942 -0.027415189892053604 255.0 41.0 1.0 1.0
-0.86313647 -0.91195202 0.33885336 0.006530421786010265 0.9989722371101379 -0.044852517545223236 255.0 42.0 1.0 1.0
-0.85880244 -0.92659974 0.34093523 -0.0026104841381311417 0.9993537068367004 -0.03585134074091911 255.0 42.0 1.0 1.0
-0.87064821 -0.91829455 0.37761769 0.002673204755410552 0.9991406202316284 -0.041364360600709915 255.0 43.0 1.0 1.0
-0.86360466 -0.93016547 0.37875834 -0.005356903187930584 0.9988771677017212 -0.04707205295562744 255.0 43.0 1.0 1.0
-0.86948907 -0.91548896 0.41343889 0.005198607686907053 0.9996349215507507 -0.026514369994401932 255.0 44.0 1.0 1.0
-0.8598671 -0.92453933 0.41343504 0.00023666118795517832 0.9988724589347839 -0.04747215285897255 255.0 44.0 1.0 1.0
-0.84936529 -0.89276952 0.440276 -0.002659082179889083 0.998869001865387 -0.04747198522090912 255.0 45.0 1.0 1.0
-0.86052918 -0.92365074 0.4510451 -0.006372244097292423 0.9996126890182495 -0.027088740840554237 255.0 45.0 1.0 1.0
-0.85219145 -0.89388001 0.47870559 0.006082999520003796 0.9991998672485352 -0.03953016549348831 255.0 46.0 1.0 1.0
-0.84788865 -0.90820068 0.48159465 -0.00719410227611661 0.9991479516029358 -0.04063953086733818 255.0 46.0 1.0 1.0
-0.85387141 -0.89409643 0.51819402 -0.00819933507591486 0.9984539151191711 -0.05497768893837929 255.0 47.0 1.0 1.0
-0.83187324 -0.88951725 0.51045501 -0.00819933507591486 0.9984539151191711 -0.05497768893837929 255.0 47.0 1.0 1.0
-0.81638104 -1.2866154 0.6896925 0.010558943264186382 0.9973230361938477 -0.07235503196716309 255.0 48.0 1.0 1.0
-0.81824189 -1.3198606 0.70289302 0.002956412499770522 0.997995913028717 -0.06321050226688385 255.0 48.0 1.0 1.0
-0.81795621 -1.2920859 0.74391609 -0.000324788416037336 0.9982019662857056 -0.059941746294498444 255.0 49.0 1.0 1.0
-0.81196636 -1.312808 0.75091773 -0.00048291287384927273 0.9981827735900879 -0.06025686115026474 255.0 49.0 1.0 1.0
-0.80112004 -1.2689281 0.78281468 -0.00048291287384927273 0.9981827735900879 -0.06025686115026474 255.0 50.0 1.0 1.0
-0.7971155 -1.2923298 0.79206812 0.00738795381039381 0.9983845949172974 -0.05633356422185898 255.0 50.0 1.0 1.0
-0.80182177 -1.274467 0.84077239 -0.016328606754541397 0.9977958798408508 -0.0643187090754509 255.0 51.0 1.0 1.0
-0.79393613 -1.2917105 0.84662461 0.005362289492040873 0.9975255727767944 -0.070100799202919 255.0 51.0 1.0 1.0
-0.78318399 -1.248717 0.87968433 -0.0017441143281757832 0.9965553283691406 -0.0829126313328743 255.0 52.0 1.0 1.0
-0.77905607 -1.2714827 0.88993734 0.017706967890262604 0.9976032972335815 -0.06688914448022842 255.0 52.0 1.0 1.0
-0.78134274 -1.2506232 0.93957567 -0.0015094071859493852 0.9979754090309143 -0.06358247995376587 255.0 53.0 1.0 1.0
-0.77525282 -1.2702438 0.94817603 0.004629532806575298 0.9983367323875427 -0.05746600776910782 255.0 53.0 1.0 1.0
-0.77399254 -1.244651 0.99679416 -0.0047708903439342976 0.99896639585495 -0.04520349204540253 255.0 54.0 1.0 1.0
-0.76437026 -1.2583318 1.0012943 0.004630283452570438 0.9984986186027527 -0.05458123981952667 255.0 54.0 1.0 1.0
-0.77034545 -1.2445881 1.0621947 -0.0006487415521405637 0.9985381960868835 -0.05404641851782799 255.0 55.0 1.0 1.0
-0.76064056 -1.2581171 1.0668945 0.006732087582349777 0.9991867542266846 -0.039756014943122864 255.0 55.0 1.0 1.0
-0.75929505 -1.2339399 1.1220009 -0.001135826576501131 0.9990034699440002 -0.044617291539907455 255.0 56.0 1.0 1.0
-0.74635279 -1.2418141 1.1220006 -0.001135826576501131 0.9990034699440002 -0.044617291539907455 255.0 56.0 1.0 1.0
-0.74457455 -1.2180977 1.1804724 -0.0019234364153817296 0.9990674257278442 -0.043134402483701706 253.0 57.0 1.0 1.0
-0.74444133 -1.2469866 1.2008702 0.0064087011851370335 0.999373197555542 -0.034814875572919846 253.0 57.0 1.0 1.0
-0.74069256 -1.2198566 1.2610691 -0.0036724915262311697 0.9992169737815857 -0.039393920451402664 255.0 58.0 1.0 1.0
-0.73554468 -1.2404228 1.2743162 0.007601432502269745 0.9984791874885559 -0.05460398271679878 255.0 58.0 1.0 1.0
-0.72709554 -1.2074084 1.3337241 0.000473875756142661 0.998468816280365 -0.05531550571322441 255.0 59.0 1.0 1.0
-0.72474432 -1.2324709 1.3529748 0.00047363110934384167 0.9979533553123474 -0.06394466012716293 247.0 59.0 1.0 1.0
-0.71864748 -1.2057087 1.4253131 0.008077139966189861 0.9992239475250244 -0.03855310380458832 255.0 60.0 1.0 1.0
-0.71871185 -1.2349812 1.4509701 -0.004891354590654373 0.9983361959457397 -0.057453908026218414 255.0 60.0 1.0 1.0
-0.69778383 -1.1847503 1.5021386 -0.0006119721219874918 0.998025119304657 -0.06281305849552155 247.0 61.0 1.0 1.0
-0.69882631 -1.2153848 1.5316515 -0.0006119721219874918 0.998025119304657 -0.06281305849552155 255.0 61.0 1.0 1.0
-0.68640655 -1.1809071 1.6113611 0.0025102579966187477 0.998877227306366 -0.04730682075023651 253.0 62.0 1.0 1.0
-0.68679214 -1.2105048 1.6418806 0.0008819621871225536 0.998101532459259 -0.06158267334103584 255.0 62.0 1.0 1.0
-0.67481136 -1.1802766 1.7402456 0.024828502908349037 0.9966286420822144 -0.0781983956694603 255.0 63.0 1.0 1.0
-0.67444104 -1.2087606 1.7717733 -0.11731863766908646 0.9457297325134277 -0.3030373752117157 255.0 63.0 1.0 1.0
-1.003908 -1.0689638 -0.89988577 -0.10650238394737244 0.149948388338089 0.9829408526420593 255.0 11.0 2.0 1.0
-0.38865525 -0.36014423 -0.69808888 0.15540526807308197 0.135788694024086 0.9784736633300781 255.0 0.0 1.0 1.0
-0.3848618 -0.36419764 -0.69809091 0.15540526807308197 0.135788694024086 0.9784736633300781 250.0 0.0 1.0 1.0
-0.41581166 -0.39059198 -0.69145709 0.15540526807308197 0.135788694024086 0.9784736633300781 250.0 1.0 1.0 1.0
-0.41537249 -0.39844805 -0.69763231 0.0924876406788826 0.13686951994895935 0.9862619638442993 250.0 1.0 1.0 1.0
-0.44980726 -0.42711067 -0.69619936 0.09314468502998352 -0.06885945796966553 0.9932685494422913 247.0 2.0 1.0 1.0
-0.44339862 -0.42995057 -0.69321394 0.09314468502998352 -0.06885945796966553 0.9932685494422913 244.0 2.0 1.0 1.0
-0.47798178 -0.45831606 -0.69013494 0.15005718171596527 -5.0090304284822196e-05 0.9886772632598877 253.0 3.0 1.0 1.0
-0.47315541 -0.46329954 -0.69013733 0.15005718171596527 -5.0090304284822196e-05 0.9886772632598877 247.0 3.0 1.0 1.0
-0.50986409 -0.49281636 -0.68865234 0.14083752036094666 0.10732642561197281 0.9841980934143066 241.0 4.0 1.0 1.0
-0.50671738 -0.50014573 -0.69144273 0.14083752036094666 0.10732642561197281 0.9841980934143066 244.0 4.0 1.0 1.0
-0.54386634 -0.52935147 -0.68815738 0.11990496516227722 0.06969515979290009 0.990336000919342 250.0 5.0 1.0 1.0
-0.5424968 -0.53919536 -0.6935358 0.11990496516227722 0.06969515979290009 0.990336000919342 250.0 5.0 1.0 1.0
-0.58220315 -0.57022041 -0.69106352 0.12969239056110382 0.039159439504146576 0.990780770778656 255.0 6.0 1.0 1.0
-0.57619935 -0.576289 -0.69106632 0.13699260354042053 0.04657883942127228 0.9894763231277466 253.0 6.0 1.0 1.0
-0.62751442 -0.61780399 -0.69932616 0.11881891638040543 0.02377413772046566 0.9926312565803528 255.0 7.0 1.0 1.0
-0.6188001 -0.62212533 -0.6968407 0.1433049440383911 0.04865748807787895 0.9884817004203796 255.0 7.0 1.0 1.0
-0.6572789 -0.65004593 -0.6882717 0.1254880279302597 0.04153295233845711 0.9912253618240356 255.0 8.0 1.0 1.0
-0.6572088 -0.66373181 -0.69544363 0.1301392763853073 0.046252720057964325 0.9904162883758545 255.0 8.0 1.0 1.0
-0.71456838 -0.7098918 -0.70336401 0.07119181752204895 0.046181365847587585 0.9963929653167725 255.0 9.0 1.0 1.0
-0.70709455 -0.71733886 -0.70336741 0.08874102681875229 0.06379038840532303 0.9940100312232971 255.0 9.0 1.0 1.0
-0.75885999 -0.75625223 -0.70141459 -0.13736754655838013 0.05210259184241295 0.9891489148139954 255.0 10.0 1.0 1.0
-0.75089806 -0.76416075 -0.70141816 -0.13736754655838013 0.05210259184241295 0.9891489148139954 255.0 10.0 1.0 1.0
-0.77176374 -0.77181172 -0.66968387 -0.1077142208814621 0.010612471960484982 0.9941253066062927 232.0 11.0 1.0 1.0
-0.75886679 -0.77498466 -0.66550249 -0.1077142208814621 0.010612471960484982 0.9941253066062927 139.0 11.0 1.0 1.0
-1.0093426 -1.0124352 -0.82092661 0.05419022589921951 0.9982004165649414 0.025679057464003563 255.0 12.0 1.0 1.0
-0.99625933 -1.020472 -0.81893897 -0.008073502220213413 0.999636709690094 0.025716004893183708 255.0 12.0 1.0 1.0
-0.99676728 -1.0022981 -0.75924772 0.014709324575960636 0.9995201230049133 -0.02726198174059391 255.0 13.0 1.0 1.0
-1.0083464 -1.0353979 -0.77629143 0.014709324575960636 0.9995201230049133 -0.02726198174059391 255.0 13.0 1.0 1.0
-0.99014467 -0.99775237 -0.70502454 -0.003910969477146864 0.9994694590568542 -0.032333239912986755 255.0 14.0 1.0 1.0
-0.98462588 -1.0131962 -0.70861679 -0.003910969477146864 0.9994694590568542 -0.032333239912986755 255.0 14.0 1.0 1.0
-0.98711574 -0.99680936 -0.65577477 0.0019727558828890324 0.9989139437675476 -0.04655132442712784 255.0 15.0 1.0 1.0
-0.98166955 -1.0122954 -0.65916806 0.0019727558828890324 0.9989139437675476 -0.04655132442712784 255.0 15.0 1.0 1.0
-0.97895718 -1.4857625 -0.77473468 -0.0021581591572612524 0.9992814064025879 -0.037840668112039566 255.0 16.0 1.0 1.0
-0.97525924 -1.5144339 -0.7843194 0.00421986635774374 0.9989071488380432 -0.04654944688081741 255.0 16.0 1.0 1.0
-0.97948945 -1.4831934 -0.71710765 0.019579095765948296 0.9990488886833191 -0.03896249830722809 255.0 17.0 1.0 1.0
-0.99408334 -1.540116 -0.73956317 0.0003567241656128317 0.9995356202125549 -0.030472133308649063 255.0 17.0 1.0 1.0
-0.98130566 -1.4820094 -0.66177332 0.016524141654372215 0.9984856843948364 -0.052470870316028595 255.0 18.0 1.0 1.0
-0.97388059 -1.5047939 -0.66735852 0.006125616375356913 0.9989495277404785 -0.04541228339076042 255.0 18.0 1.0 1.0
-0.96090186 -1.4479156 -0.59454381 -0.0015836479142308235 0.9991872906684875 -0.04027722775936127 255.0 19.0 1.0 1.0
-0.96010721 -1.4801244 -0.60361111 -0.007018688600510359 0.9992117881774902 -0.03906993567943573 255.0 19.0 1.0 1.0
-0.95786083 -1.4406116 -0.54115099 -0.013512525707483292 0.9989355206489563 -0.044104862958192825 255.0 20.0 1.0 1.0
-0.96145052 -1.4793705 -0.55190217 0.005473009310662746 0.9996688365936279 -0.025141729041934013 255.0 20.0 1.0 1.0
-0.96025908 -1.4414937 -0.49229366 -0.009318138472735882 0.9992486238479614 -0.03762095421552658 255.0 21.0 1.0 1.0
-0.95771253 -1.470816 -0.49885789 0.005469194147735834 0.9989719390869141 -0.045002926141023636 255.0 21.0 1.0 1.0
-0.94901288 -1.4219333 -0.43759912 0.0012371360789984465 0.9996730089187622 -0.025542670860886574 255.0 22.0 1.0 1.0
-0.93195504 -1.4285496 -0.4366082 0.0012354077771306038 0.9982764720916748 -0.05867331847548485 255.0 22.0 1.0 1.0
-0.94515979 -1.41403 -0.38862008 0.0030895660165697336 0.9993683695793152 -0.03540223464369774 255.0 23.0 1.0 1.0
-0.93670356 -1.4336437 -0.39129484 0.010567384772002697 0.9993173480033875 -0.03540060669183731 255.0 23.0 1.0 1.0
-0.93590206 -1.3986055 -0.33898854 0.02367289550602436 0.9988444447517395 -0.04182682931423187 255.0 24.0 1.0 1.0
-0.94267821 -1.4411421 -0.34689003 0.007107010576874018 0.9998114705085754 -0.018071692436933517 255.0 24.0 1.0 1.0
-0.93706596 -1.3982381 -0.29387432 0.00882293377071619 0.9997700452804565 -0.01954583078622818 255.0 25.0 1.0 1.0
-0.92237669 -1.4079746 -0.29387555 0.017338087782263756 0.9988320469856262 -0.04509779438376427 255.0 25.0 1.0 1.0
-0.93730581 -1.3970201 -0.24908864 0.0160081684589386 0.9989668726921082 -0.04253162071108818 255.0 26.0 1.0 1.0
-0.9291414 -1.416684 -0.25084767 0.011290881782770157 0.9991541504859924 -0.039541035890579224 255.0 26.0 1.0 1.0
-0.9166835 -1.3652694 -0.20065418 0.003649891121312976 0.999891459941864 -0.014273765496909618 255.0 27.0 1.0 1.0
-0.92631286 -1.4113038 -0.20598502 0.003649891121312976 0.999891459941864 -0.014273765496909618 255.0 27.0 1.0 1.0
-0.92441154 -1.3752253 -0.15912572 0.007587214931845665 0.9981745481491089 -0.059916768223047256 255.0 28.0 1.0 1.0
-0.92308766 -1.4047933 -0.16142108 0.010241886600852013 0.9979987740516663 -0.06239864230155945 255.0 28.0 1.0 1.0
-0.90435076 -1.344891 -0.11378043 0.00582075584679842 0.9992937445640564 -0.03712385520339012 255.0 29.0 1.0 1.0
-0.90776217 -1.3809583 -0.11602232 0.00582075584679842 0.9992937445640564 -0.03712385520339012 255.0 29.0 1.0 1.0
-0.90813977 -1.3500206 -0.072560139 -0.015223734080791473 0.9990690350532532 -0.0403624102473259 255.0 30.0 1.0 1.0
-0.90054756 -1.3694708 -0.073095717 0.009196922183036804 0.9996680617332458 -0.024066319689154625 255.0 30.0 1.0 1.0
-0.90017521 -1.3376868 -0.030849038 -0.015234014950692654 0.9997437596321106 -0.01674461178481579 255.0 31.0 1.0 1.0
-0.89491862 -1.3604019 -0.031155791 0.014626435935497284 0.9989451766014099 -0.04352949187159538 255.0 31.0 1.0 1.0
-0.9127661 -0.932073 0.0085791731 -0.0007532010204158723 0.9987203478813171 -0.05056646093726158 255.0 32.0 1.0 1.0
-0.90019363 -0.93869269 0.0085484777 -0.0007532010204158723 0.9987203478813171 -0.05056646093726158 255.0 32.0 1.0 1.0
-0.90983462 -0.9284479 0.041649435 0.01695670187473297 0.9967116117477417 -0.07923682034015656 255.0 33.0 1.0 1.0
-0.91945314 -0.95810932 0.042543698 0.01695670187473297 0.9967116117477417 -0.07923682034015656 255.0 33.0 1.0 1.0
-0.91174585 -0.93008733 0.074971922 -0.006263689137995243 0.9982165098190308 -0.05936894193291664 255.0 34.0 1.0 1.0
-0.90749711 -0.94534194 0.075428091 -0.006263689137995243 0.9982165098190308 -0.05936894193291664 255.0 34.0 1.0 1.0
-0.90451849 -0.9227336 0.10749864 -0.017940735444426537 0.9988237619400024 -0.04504678398370743 255.0 35.0 1.0 1.0
-0.91138285 -0.94940192 0.10948638 -0.017940735444426537 0.9988237619400024 -0.04504678398370743 255.0 35.0 1.0 1.0
-0.89982527 -0.91732323 0.14004949 -0.01795162819325924 0.9994301795959473 -0.028584996238350868 255.0 36.0 1.0 1.0
-0.90671229 -0.94389433 0.14264807 -0.01795162819325924 0.9994301795959473 -0.028584996238350868 255.0 36.0 1.0 1.0
-0.89175475 -0.9084816 0.17201437 -0.008852901868522167 0.9960742592811584 -0.08807786554098129 255.0 37.0 1.0 1.0
-0.8959412 -0.93205178 0.1746906 -0.008852901868522167 0.9960742592811584 -0.08807786554098129 255.0 37.0 1.0 1.0
-0.88053328 -0.89613307 0.20264336 -0.013408925384283066 0.9960237145423889 -0.08807339519262314 255.0 38.0 1.0 1.0
-0.893022 -0.92805904 0.20773886 0.009245780296623707 0.9995555877685547 -0.0283383559435606 255.0 38.0 1.0 1.0
