ply
format ascii 1.0
element vertex 438
property float x
property float y
property float z
property float nx
property float ny
property float nz
property float intensity
property float ring
property float return
property float label
end_header
4.4999719 -5.7105856 -1.6657207 -0.02173486351966858 -0.922717273235321 0.3848642110824585 166.0 23.0 1.0 1.0
4.4935155 -5.5810666 -1.6419194 0.08524170517921448 -0.9266684055328369 0.36608657240867615 172.0 23.0 1.0 1.0
4.5543365 -5.7844248 -1.487391 -0.33171215653419495 -0.7996247410774231 0.5005669593811035 118.0 24.0 1.0 1.0
4.5900846 -5.7057958 -1.4798008 0.03864968940615654 -0.877901554107666 0.47727879881858826 178.0 24.0 1.0 1.0
8.1770649 -10.399649 -2.3179736 0.29241716861724854 -0.8483805656433105 0.4412965476512909 15.0 25.0 1.0 1.0
4.8708034 -6.0620866 -1.3625765 -0.14958584308624268 -0.980513334274292 0.1273488700389862 39.0 25.0 1.0 1.0
9.4238634 -11.9914 -2.2674611 0.3427481949329376 -0.937501072883606 0.06013013422489166 13.0 26.0 1.0 1.0
5.1102815 -6.3632789 -1.2133524 -0.40883558988571167 -0.8843751549720764 -0.22524228692054749 25.0 26.0 1.0 1.0
9.4247379 -12.002633 -1.8711215 0.0 0.0 0.0 17.0 27.0 1.0 0.0
5.1477971 -6.4153976 -1.0085046 0.0 0.0 0.0 26.0 27.0 1.0 0.0
9.4607821 -12.054384 -1.4803622 0.0 0.0 0.0 14.0 28.0 1.0 0.0
5.1682792 -6.4440455 -0.79799587 0.0 0.0 0.0 25.0 28.0 1.0 0.0
5.1444144 -6.5569849 -0.58936441 0.0 0.0 0.0 11.0 29.0 1.0 0.0
5.1703863 -6.4498005 -0.5849387 0.0 0.0 0.0 24.0 29.0 1.0 0.0
5.1664252 -6.5858946 -0.37744442 0.0 0.0 0.0 12.0 30.0 1.0 0.0
5.1951394 -6.4815254 -0.37493461 0.0 0.0 0.0 24.0 30.0 1.0 0.0
5.1727462 -6.5948114 -0.16439216 0.0 0.0 0.0 12.0 31.0 1.0 0.0
5.2365341 -6.5340371 -0.16461766 0.0 0.0 0.0 24.0 31.0 1.0 0.0
5.4133015 -10.341686 0.37769485 0.02741292119026184 -0.9718496799468994 -0.23400159180164337 12.0 33.0 1.0 5.0
4.6175075 -8.8184996 0.57644242 -0.08926725387573242 -0.6778766512870789 -0.7297359704971313 28.0 34.0 1.0 1.0
4.6680622 -8.6922922 0.57088315 -0.05334458872675896 -0.8054354786872864 -0.5902779698371887 24.0 34.0 1.0 1.0
4.0763426 -7.7857642 0.73445815 -0.10769866406917572 -0.04714591056108475 -0.9930650591850281 33.0 35.0 1.0 1.0
4.1633282 -7.7532282 0.73502725 -0.15067997574806213 -0.12754394114017487 -0.9803204536437988 32.0 35.0 1.0 1.0
3.5392406 -6.7633753 0.83512348 -0.09833402186632156 -0.1955408751964569 -0.9757530689239502 124.0 36.0 1.0 1.0
3.5835757 -6.6769333 0.82867181 -0.15934954583644867 -0.09107563644647598 -0.9830121397972107 49.0 36.0 1.0 1.0
3.1831398 -6.0860186 0.93113899 -0.4292968511581421 -0.041939422488212585 -0.9021892547607422 106.0 37.0 1.0 1.0
3.246722 -6.052402 0.93080425 -0.32996976375579834 -0.05356543883681297 -0.9424706101417542 139.0 37.0 1.0 1.0
2.8834229 -5.5181603 1.0072837 -0.2984462380409241 0.10765796899795532 -0.9483352303504944 139.0 38.0 1.0 1.0
2.9429424 -5.4911976 1.0076181 -0.2567490339279175 -0.26921138167381287 -0.9282269477844238 136.0 38.0 1.0 1.0
2.645478 -5.0653892 1.0762857 -0.11516367644071579 -0.04346741363406181 -0.9923950433731079 199.0 39.0 1.0 1.0
2.7095387 -5.058259 1.0804434 -0.07236307114362717 -0.02372845448553562 -0.9970960021018982 223.0 39.0 1.0 1.0
2.4235399 -4.644752 1.1281651 -0.5186054110527039 -0.021988285705447197 -0.8547309041023254 193.0 40.0 1.0 1.0
2.4720752 -4.6191778 1.1279097 -0.07224071770906448 -0.0497325100004673 -0.9961465001106262 202.0 40.0 1.0 1.0
2.2448885 -4.308188 1.1795607 -0.1316983550786972 -0.08760742843151093 -0.9874110221862793 232.0 41.0 1.0 1.0
2.2825832 -4.2707906 1.1755531 -0.13220638036727905 0.002132837427780032 -0.9912199974060059 226.0 41.0 1.0 1.0
2.0921366 -4.0204701 1.2261288 -0.13333630561828613 -0.056181956082582474 -0.9894770979881287 247.0 42.0 1.0 1.0
2.1414232 -4.0120339 1.2300813 -0.1404556930065155 -0.08223928511142731 -0.9866655468940735 255.0 42.0 1.0 1.0
1.9375463 -3.7299614 1.2573103 -0.11081260442733765 -0.06576637923717499 -0.9916629195213318 235.0 43.0 1.0 1.0
1.9873377 -3.7298307 1.2639756 -0.18397130072116852 -0.02912854589521885 -0.982499897480011 247.0 43.0 1.0 1.0
1.8506202 -3.5689535 1.3195112 -0.45742809772491455 -0.06342082470655441 -0.8869822025299072 255.0 44.0 1.0 1.0
1.8665155 -3.509172 1.3043622 -0.4336169958114624 -0.024997800588607788 -0.9007503986358643 244.0 44.0 1.0 1.0
1.7013758 -3.2868495 1.3254434 -0.4569528102874756 -0.0661732479929924 -0.8870260119438171 235.0 45.0 1.0 1.0
1.7286723 -3.2556136 1.319874 -0.2637793719768524 -0.07071347534656525 -0.9619874954223633 235.0 45.0 1.0 1.0
1.5961018 -3.0901883 1.3512213 -0.1538451761007309 -0.02553427591919899 -0.9877649545669556 255.0 46.0 1.0 1.0
1.6301513 -3.0766704 1.3524987 -0.10183560103178024 -0.040926069021224976 -0.9939590692520142 255.0 46.0 1.0 1.0
1.5156863 -2.9396136 1.3893676 -0.05501037836074829 0.013157501816749573 -0.9983990788459778 255.0 47.0 1.0 1.0
1.5412475 -2.9138699 1.3845633 -0.09018456190824509 0.01312375720590353 -0.9958385229110718 255.0 47.0 1.0 1.0
1.9292516 -2.4182911 1.3999349 -0.17806115746498108 -0.09621474146842957 -0.9793042540550232 253.0 48.0 1.0 1.0
1.9452953 -2.3867235 1.3932033 -0.19769391417503357 -0.08559046685695648 -0.9765200018882751 241.0 48.0 1.0 1.0
1.8240854 -2.2807634 1.4205071 -0.2065095752477646 -0.0904097855091095 -0.974258542060852 253.0 49.0 1.0 1.0
1.8547274 -2.2699716 1.4256181 -0.134181410074234 -0.016105083748698235 -0.990825891494751 255.0 49.0 1.0 1.0
1.7283949 -2.1549301 1.44091 -0.26629677414894104 -0.0695311650633812 -0.961379885673523 253.0 50.0 1.0 1.0
1.7508996 -2.1367867 1.4407842 -0.2665051519870758 -0.05724375322461128 -0.9621321558952332 253.0 50.0 1.0 1.0
1.6773002 -2.0837681 1.4935795 -0.16732573509216309 -0.048129189759492874 -0.9847261309623718 255.0 51.0 1.0 1.0
1.6879748 -2.0526702 1.4837158 -0.16741490364074707 -0.03539380803704262 -0.9852509498596191 253.0 51.0 1.0 1.0
1.5795155 -1.9559032 1.5003926 -0.3011178970336914 -0.07183778285980225 -0.9508771896362305 255.0 52.0 1.0 1.0
1.5955746 -1.9340301 1.4961818 -0.30169713497161865 0.036462146788835526 -0.9527062773704529 253.0 52.0 1.0 1.0
1.4764349 -1.8209637 1.4937711 0.17380592226982117 -0.08939521759748459 -0.9807140231132507 247.0 53.0 1.0 1.0
1.4954569 -1.8054799 1.4936646 -0.1596297025680542 -0.06873039901256561 -0.9847813844680786 253.0 53.0 1.0 1.0
1.4120387 -1.733358 1.520596 -0.1852579265832901 -0.13111010193824768 -0.9739043712615967 255.0 54.0 1.0 1.0
1.425917 -1.7134657 1.515999 -0.1852579265832901 -0.13111010193824768 -0.9739043712615967 255.0 54.0 1.0 1.0
1.3306594 -1.625723 1.524738 -0.08717124164104462 -0.08538462966680527 -0.9925274848937988 255.0 55.0 1.0 1.0
1.347645 -1.6117779 1.5246427 -0.08717124164104462 -0.08538462966680527 -0.9925274848937988 255.0 55.0 1.0 1.0
1.2722867 -1.5453808 1.5503505 -0.1414192169904709 -0.09702116250991821 -0.9851839542388916 255.0 56.0 1.0 1.0
1.2823303 -1.5247846 1.5429174 -0.1326272040605545 -0.09441863000392914 -0.9866585731506348 253.0 56.0 1.0 1.0
1.1997728 -1.4477427 1.5549606 -0.12143182009458542 -0.06507554650306702 -0.9904642105102539 253.0 57.0 1.0 1.0
1.2268479 -1.4493108 1.5701599 -0.12565545737743378 -0.06934566050767899 -0.9896473288536072 255.0 57.0 1.0 1.0
1.1406995 -1.3669161 1.5734242 -0.15049876272678375 -0.08167945593595505 -0.9852301478385925 253.0 58.0 1.0 1.0
1.1569296 -1.3572607 1.575991 -0.15049876272678375 -0.08167945593595505 -0.9852301478385925 255.0 58.0 1.0 1.0
1.0847586 -1.289439 1.5947456 -0.121042400598526 -0.03524097427725792 -0.9920215606689453 255.0 59.0 1.0 1.0
1.096344 -1.2758847 1.5919219 -0.12061271071434021 -0.091216541826725 -0.9884999394416809 255.0 59.0 1.0 1.0
1.0192566 -1.2000644 1.5990256 -0.10841687768697739 -0.6872993111610413 -0.7182377576828003 255.0 60.0 1.0 1.0
1.0318028 -1.1894073 1.5989549 -0.10841687768697739 -0.6872993111610413 -0.7182377576828003 255.0 60.0 1.0 1.0
1.0031145 -1.1677977 1.6819746 -0.02034071832895279 -0.5239075422286987 -0.8515322804450989 255.0 61.0 1.0 1.0
1.002861 -1.1430844 1.6612626 -0.02034071832895279 -0.5239075422286987 -0.8515322804450989 255.0 61.0 1.0 1.0
0.94722557 -1.0890493 1.7027669 -0.16049300134181976 -0.10175792872905731 -0.9817776083946228 255.0 62.0 1.0 1.0
0.95346314 -1.0733476 1.6935532 -0.16049300134181976 -0.10175792872905731 -0.9817776083946228 255.0 62.0 1.0 1.0
0.88046014 -0.9967941 1.7023114 -0.2321445792913437 -0.070889912545681 -0.970094621181488 255.0 63.0 1.0 1.0
0.90078098 -0.99859613 1.7211554 -0.23210971057415009 -0.0729663297533989 -0.969948947429657 255.0 63.0 1.0 1.0
8.2213068 -10.233515 -2.3006451 -0.4211512506008148 -0.8331132531166077 0.35854414105415344 16.0 25.0 2.0 1.0
9.5151415 -12.129702 -1.0909977 0.0 0.0 0.0 19.0 29.0 2.0 0.0
0.4981325 -1.1216236 -1.6176616 0.12986506521701813 0.034263353794813156 0.9909395575523376 255.0 0.0 1.0 1.0
0.48732048 -1.1290734 -1.6207874 0.12986506521701813 0.034263353794813156 0.9909395575523376 255.0 0.0 1.0 1.0
0.55287218 -1.2209463 -1.6251171 0.12296843528747559 0.01838136464357376 0.992240309715271 255.0 1.0 1.0 1.0
0.54313254 -1.233735 -1.6343074 0.12295152992010117 0.024753514677286148 0.9921038746833801 255.0 1.0 1.0 1.0
0.60754037 -1.3212869 -1.6327565 0.15030263364315033 0.0557684451341629 0.9870659112930298 255.0 2.0 1.0 1.0
0.5980134 -1.3373704 -1.6446314 0.14574310183525085 0.05580694228410721 0.987747311592102 255.0 2.0 1.0 1.0
0.67109776 -1.4396914 -1.6557915 0.11901512742042542 0.023547399789094925 0.9926131963729858 255.0 3.0 1.0 1.0
0.65598971 -1.4467155 -1.6557137 0.14449305832386017 -0.0010380332823842764 0.9895052313804626 255.0 3.0 1.0 1.0
0.73238105 -1.5536571 -1.6683487 0.09310980141162872 0.014336452819406986 0.995552659034729 255.0 4.0 1.0 1.0
0.71129727 -1.5508813 -1.6571177 0.09310980141162872 0.014336452819406986 0.995552659034729 250.0 4.0 1.0 1.0
0.79037738 -1.6604793 -1.667605 0.08375732600688934 0.021466372534632683 0.9962549209594727 250.0 5.0 1.0 1.0
0.78663522 -1.698326 -1.6970694 0.09970201551914215 0.06853480637073517 0.9926543235778809 255.0 5.0 1.0 1.0
0.86309171 -1.7975713 -1.6909807 0.09784141182899475 0.047489721328020096 0.9940682649612427 244.0 6.0 1.0 1.0
0.84551573 -1.8093529 -1.6934701 0.14167317748069763 0.06443062424659729 0.9878144860267639 255.0 6.0 1.0 1.0
0.93781382 -1.9390872 -1.71047 0.12135355919599533 0.015859894454479218 0.9924827218055725 250.0 7.0 1.0 1.0
0.92412657 -1.9630537 -1.7228017 0.12108001112937927 0.0689450055360794 0.990245521068573 255.0 7.0 1.0 1.0
1.0118254 -2.0789976 -1.7212843 0.09009771794080734 -0.015165260061621666 0.9958174228668213 247.0 8.0 1.0 1.0
0.99961257 -2.109859 -1.7378911 0.1028023213148117 0.031644247472286224 0.9941982626914978 255.0 8.0 1.0 1.0
1.1015226 -2.2492571 -1.7485795 0.09114166349172592 0.04163771867752075 0.9949670433998108 244.0 9.0 1.0 1.0
1.0750935 -2.2548268 -1.7438776 0.11708410084247589 0.05510814115405083 0.9915918707847595 247.0 9.0 1.0 1.0
1.1960057 -2.4314384 -1.7736056 0.14440609514713287 0.039032019674777985 0.98874831199646 247.0 10.0 1.0 1.0
1.1704851 -2.4439106 -1.7734733 0.1443266123533249 0.051211509853601456 0.9882040619850159 250.0 10.0 1.0 1.0
1.2942133 -2.6184423 -1.7916054 0.10777314752340317 0.02901781164109707 0.9937519431114197 235.0 11.0 1.0 1.0
1.2637734 -2.625788 -1.7872798 0.13856332004070282 0.060222454369068146 0.9885208606719971 229.0 11.0 1.0 1.0
1.4046909 -2.8296325 -1.8133065 0.07455214858055115 0.06074030324816704 0.9953655004501343 235.0 12.0 1.0 1.0
1.3644269 -2.8224039 -1.7992129 0.07591802626848221 0.04175643250346184 0.9962393641471863 229.0 12.0 1.0 1.0
1.522073 -3.055563 -1.8327359 0.09722471982240677 0.06472571194171906 0.9931555390357971 217.0 13.0 1.0 1.0
1.4838507 -3.058733 -1.8250008 0.09454268217086792 0.06202956661581993 0.9935864806175232 211.0 13.0 1.0 1.0
1.6535364 -3.3095999 -1.8547236 0.09691650420427322 0.08170917630195618 0.9919328093528748 190.0 14.0 1.0 1.0
1.6187953 -3.3268189 -1.8545433 0.08793562650680542 0.0469658225774765 0.9950183033943176 190.0 14.0 1.0 1.0
1.8145252 -3.6211088 -1.89236 0.15304040908813477 0.10095809400081635 0.9830493330955505 175.0 15.0 1.0 1.0
1.7717478 -3.6302273 -1.8870828 0.15373419225215912 0.03461415320634842 0.9875057935714722 166.0 15.0 1.0 1.0
2.7965865 -3.5830815 -1.9824624 0.09976515173912048 0.012263825163245201 0.9949353933334351 148.0 16.0 1.0 1.0
2.7611449 -3.615176 -1.9838541 0.16167855262756348 0.11817775666713715 0.9797418713569641 154.0 16.0 1.0 1.0
3.0851495 -3.9604237 -2.0290189 0.142326220870018 0.0623859204351902 0.9878517985343933 94.0 17.0 1.0 1.0
3.0435169 -3.9926074 -2.0287895 0.1283549815416336 0.029442185536026955 0.9912911653518677 100.0 17.0 1.0 1.0
3.4490979 -4.4378104 -2.0964956 0.16856010258197784 0.00992440152913332 0.9856414198875427 38.0 18.0 1.0 1.0
3.4092519 -4.4827318 -2.1004329 0.09466209262609482 0.03646186366677284 0.994841456413269 34.0 18.0 1.0 1.0
3.9210443 -5.0548754 -2.1930482 0.14071381092071533 -0.6804018616676331 0.7192029356956482 16.0 19.0 1.0 1.0
3.8656201 -5.0927458 -2.1914585 0.11101966351270676 0.03426554799079895 0.9932273030281067 31.0 19.0 1.0 1.0
3.9748502 -5.132164 -2.0347264 0.3470812141895294 -0.9349492788314819 -0.07351554930210114 187.0 20.0 1.0 1.0
3.9969573 -5.2739987 -2.0739167 -0.5483989715576172 -0.8361840844154358 -0.00740037253126502 255.0 20.0 1.0 1.0
3.9740882 -5.139123 -1.8504459 0.24536508321762085 -0.9267727136611938 0.28440871834754944 193.0 21.0 1.0 1.0
3.9966438 -5.2817893 -1.8863159 -0.5588827729225159 -0.8283213973045349 0.03916174918413162 253.0 21.0 1.0 1.0
4.3229556 -5.5991168 -1.8149202 -0.2813517451286316 -0.7553169131278992 0.5918931365013123 103.0 22.0 1.0 1.0
4.2173939 -5.582325 -1.7947106 -0.6084945797920227 -0.26645758748054504 0.7474855780601501 34.0 22.0 1.0 1.0
4.4303646 -5.7451534 -1.6618489 -0.36035460233688354 -0.8409979343414307 0.403567910194397 45.0 23.0 1.0 1.0
4.4521441 -5.9002523 -1.692783 -0.9435276985168457 0.28339800238609314 0.17158423364162445 175.0 23.0 1.0 1.0
4.9360743 -6.4065461 -1.6336761 0.27202481031417847 -0.9543313980102539 -0.12350712716579437 30.0 24.0 1.0 1.0
4.4699101 -5.9288049 -1.4994271 -0.9176168441772461 0.3894549012184143 0.07939892262220383 196.0 24.0 1.0 1.0
5.0214047 -6.5251746 -1.4419889 -0.38701871037483215 -0.9073522090911865 0.16409893333911896 27.0 25.0 1.0 1.0
4.4694104 -5.9353104 -1.3008054 -0.9265061020851135 0.3664120137691498 0.08560791611671448 214.0 25.0 1.0 1.0
5.0168347 -6.5223832 -1.2226446 0.012164434418082237 -0.9765822887420654 -0.2148003876209259 28.0 26.0 1.0 1.0
4.4653673 -5.9328146 -1.1028849 -0.8806276321411133 0.47371146082878113 -0.0096226055175066 202.0 26.0 1.0 1.0
4.9517703 -6.4432335 -0.9956193 0.0 0.0 0.0 29.0 27.0 1.0 0.0
4.4879904 -5.9679685 -0.91445994 -0.9303789138793945 0.3634739816188812 0.04776882752776146 220.0 27.0 1.0 1.0
4.8090158 -6.260478 -0.76188672 0.0 0.0 0.0 40.0 28.0 1.0 0.0
4.4896655 -5.9731221 -0.72076672 -0.8909026980400085 0.4436393678188324 0.09734722971916199 223.0 28.0 1.0 1.0
4.8105812 -6.2655826 -0.55823797 0.0 0.0 0.0 43.0 29.0 1.0 0.0
4.4978981 -5.9870195 -0.52880508 -0.9105328321456909 0.39042216539382935 0.136016383767128 229.0 29.0 1.0 1.0
4.7978487 -6.2498088 -0.35490417 0.0 0.0 0.0 42.0 30.0 1.0 0.0
4.5113797 -6.0057492 -0.33795765 -0.9359233379364014 0.3333800435066223 0.11360243707895279 232.0 30.0 1.0 1.0
4.769762 -6.2140265 -0.15326253 0.0 0.0 0.0 43.0 31.0 1.0 0.0
4.5099168 -6.0045877 -0.14654155 -0.9401852488517761 0.3195258378982544 0.11813106387853622 229.0 31.0 1.0 1.0
7.627799 -14.944371 0.11561623 -0.002655619755387306 -0.9945058226585388 0.10464799404144287 9.0 32.0 1.0 6.0
5.1202159 -10.29568 0.080097914 0.0981556624174118 -0.9281579852104187 0.3590100407600403 29.0 32.0 1.0 6.0
5.3989921 -10.583069 0.38485974 -0.01565287820994854 -0.9778174757957458 -0.2088732123374939 15.0 33.0 1.0 5.0
5.1135015 -10.288138 0.3727591 0.13414722681045532 -0.9608902335166931 -0.24226945638656616 29.0 33.0 1.0 6.0
4.5610452 -8.9375648 0.58144313 -0.12167138606309891 -0.21011880040168762 -0.9700753092765808 32.0 34.0 1.0 1.0
4.4440737 -8.9383173 0.57892519 -0.1582513153553009 -0.09545280039310455 -0.9827743172645569 39.0 34.0 1.0 1.0
4.0234184 -7.8848791 0.74011856 -0.1035633534193039 -0.5361989736557007 -0.8377143144607544 85.0 35.0 1.0 1.0
4.0097933 -8.0657511 0.75353545 -0.1391270011663437 -0.5825178623199463 -0.8008225560188293 145.0 35.0 1.0 1.0
3.4698875 -6.8036413 0.83584851 -0.1135178804397583 -0.2987188994884491 -0.9475656747817993 100.0 36.0 1.0 1.0
3.401963 -6.8466811 0.83708912 -0.13386330008506775 -0.07576300948858261 -0.9880994558334351 103.0 36.0 1.0 1.0
3.1280971 -6.1367016 0.93408406 -0.4402860999107361 -0.06619326025247574 -0.8954142928123474 121.0 37.0 1.0 1.0
3.0724492 -6.1868243 0.93710411 -0.09772342443466187 -0.12088687717914581 -0.9878444075584412 121.0 37.0 1.0 1.0
2.8307254 -5.5586281 1.009434 -0.11500217020511627 -0.13792014122009277 -0.9837441444396973 142.0 38.0 1.0 1.0
2.7758431 -5.5949888 1.0110139 -0.1395123451948166 -0.0861973688006401 -0.9864615201950073 139.0 38.0 1.0 1.0
2.5957296 -5.0998354 1.0779806 -0.11553040891885757 -0.02576647698879242 -0.9929696917533875 205.0 39.0 1.0 1.0
2.5421548 -5.1266813 1.0782586 -0.15505772829055786 -0.09089449793100357 -0.9837151169776917 196.0 39.0 1.0 1.0
2.378191 -4.6768575 1.1300447 -0.5010516047477722 0.04187674820423126 -0.8644036054611206 190.0 40.0 1.0 1.0
2.330792 -4.7049503 1.1311412 -0.6022441983222961 -0.055287592113018036 -0.7963950634002686 178.0 40.0 1.0 1.0
2.1924946 -4.3176007 1.1759707 -0.11888096481561661 -0.06647761911153793 -0.9906806349754333 211.0 41.0 1.0 1.0
2.1488559 -4.3437462 1.1771491 -0.13677693903446198 -0.10762900114059448 -0.9847375750541687 217.0 41.0 1.0 1.0
2.048058 -4.0387163 1.2252544 -0.13259026408195496 -0.11950014531612396 -0.9839407801628113 241.0 42.0 1.0 1.0
2.009043 -4.0668025 1.2275623 -0.07460187375545502 0.032738860696554184 -0.9966758489608765 250.0 42.0 1.0 1.0
1.8965366 -3.7466269 1.2563212 -0.11096219718456268 -0.040436942130327225 -0.9930015802383423 226.0 43.0 1.0 1.0
1.865639 -3.7834048 1.2622532 -0.1277400404214859 -0.08063860237598419 -0.9885240793228149 235.0 43.0 1.0 1.0
1.7907602 -3.5440273 1.303457 -0.31148526072502136 -0.021874012425541878 -0.9499991536140442 250.0 44.0 1.0 1.0
1.7652619 -3.5863917 1.3123761 -0.31130629777908325 -0.040333036333322525 -0.9494533538818359 255.0 44.0 1.0 1.0
1.6701441 -3.3112061 1.3282752 -0.45775696635246277 -0.02952202782034874 -0.8885870575904846 235.0 45.0 1.0 1.0
1.6619045 -3.3825359 1.3500187 -0.4600491225719452 -0.042417917400598526 -0.8868796229362488 255.0 45.0 1.0 1.0
1.5752738 -3.1300457 1.3614808 -0.15327800810337067 -0.0894811600446701 -0.9841234683990479 255.0 46.0 1.0 1.0
1.5390985 -3.1396024 1.3587562 -0.19036419689655304 -0.08889622241258621 -0.9776803255081177 255.0 46.0 1.0 1.0
1.4780934 -2.9421306 1.3832972 -0.12174954265356064 -5.034228161093779e-05 -0.9925609230995178 255.0 47.0 1.0 1.0
1.4487911 -2.9606895 1.3850054 -0.09861293435096741 -0.05041389912366867 -0.9938479661941528 255.0 47.0 1.0 1.0
1.9059628 -2.4412315 1.4017055 -0.1456281542778015 -0.06311225891113281 -0.9873242974281311 255.0 48.0 1.0 1.0
1.8846852 -2.4667783 1.405143 -0.22098001837730408 -0.04050471633672714 -0.9744368195533752 255.0 48.0 1.0 1.0
1.8088669 -2.3110702 1.427616 -0.18018437922000885 -0.1055138036608696 -0.9779573082923889 255.0 49.0 1.0 1.0
1.786721 -2.332669 1.4294983 -0.1804126501083374 -0.09287574887275696 -0.979196310043335 255.0 49.0 1.0 1.0
1.7143916 -2.1840684 1.4484134 -0.11292251944541931 -0.07167452573776245 -0.9910151958465576 255.0 50.0 1.0 1.0
1.6892343 -2.1990132 1.4466912 -0.11315744370222092 -0.031525589525699615 -0.9930768609046936 253.0 50.0 1.0 1.0
1.6552876 -2.1012087 1.4936849 -0.16732573509216309 -0.048129189759492874 -0.9847261309623718 255.0 51.0 1.0 1.0
1.6267656 -2.1100488 1.4879601 -0.4730396568775177 0.004990583285689354 -0.8810270428657532 255.0 51.0 1.0 1.0
1.5545908 -1.9669325 1.496394 -0.3069535791873932 -0.029251763597130775 -0.9512748122215271 244.0 52.0 1.0 1.0
1.5422779 -1.993901 1.5047029 -0.07849886268377304 -0.030640695244073868 -0.9964432120323181 255.0 52.0 1.0 1.0
1.4655739 -1.8468895 1.5024549 0.26331838965415955 -0.09927800297737122 -0.959587037563324 255.0 53.0 1.0 1.0
1.4605978 -1.8807206 1.5175995 0.26523295044898987 -0.10786212235689163 -0.958132266998291 255.0 53.0 1.0 1.0
1.3916528 -1.7454479 1.518435 -0.1918879896402359 -0.03508738428354263 -0.9807894229888916 255.0 54.0 1.0 1.0
1.3651298 -1.7494097 1.5095433 -0.22135037183761597 -0.06579945981502533 -0.9729719161987305 255.0 54.0 1.0 1.0
1.3235838 -1.6521958 1.5365593 -0.08717124164104462 -0.08538462966680527 -0.9925274848937988 255.0 55.0 1.0 1.0
1.2981899 -1.6556891 1.5272627 -0.1502496749162674 -0.02455953322350979 -0.9883430004119873 255.0 55.0 1.0 1.0
1.2559396 -1.5586029 1.5504278 -0.14409729838371277 -0.09140055626630783 -0.9853333234786987 255.0 56.0 1.0 1.0
1.2375584 -1.5691049 1.5480705 -0.15463419258594513 -0.04465079680085182 -0.9869623184204102 255.0 56.0 1.0 1.0
1.1825123 -1.4578136 1.552485 -0.15620456635951996 -0.07235433161258698 -0.985071063041687 250.0 57.0 1.0 1.0
1.1767272 -1.4821186 1.565309 -0.15620456635951996 -0.07235433161258698 -0.985071063041687 255.0 57.0 1.0 1.0
1.1281255 -1.3810915 1.5761397 -0.13253773748874664 -0.08189161121845245 -0.9877891540527344 255.0 58.0 1.0 1.0
1.1154377 -1.3950919 1.5788677 -0.13284356892108917 -0.04601222649216652 -0.9900684356689453 255.0 58.0 1.0 1.0
1.0674118 -1.2962174 1.5893136 -0.11849495768547058 -0.01588401198387146 -0.9928276538848877 253.0 59.0 1.0 1.0
1.0573901 -1.3117715 1.5948857 -0.09272600710391998 -0.09178666770458221 -0.9914520382881165 255.0 59.0 1.0 1.0
1.0083359 -1.2128118 1.6019338 -0.052988454699516296 -0.6904033422470093 -0.721481442451477 255.0 60.0 1.0 1.0
0.99731648 -1.2254019 1.6048537 -0.07290947437286377 -0.9499605894088745 -0.30374157428741455 255.0 60.0 1.0 1.0
0.99073672 -1.1782148 1.6820328 -0.05911104753613472 -0.4929904043674469 -0.8680244088172913 255.0 61.0 1.0 1.0
0.98345608 -1.1947019 1.6909499 -0.06776276230812073 -0.46076324582099915 -0.8849324584007263 255.0 61.0 1.0 1.0
0.94070441 -1.1047999 1.7119707 -0.16049300134181976 -0.10175792872905731 -0.9817776083946228 255.0 62.0 1.0 1.0
0.92739242 -1.1125139 1.7089857 -0.15848121047019958 -0.06411825865507126 -0.9852779507637024 255.0 62.0 1.0 1.0
0.87310201 -1.0096648 1.7086623 -0.2321445792913437 -0.070889912545681 -0.970094621181488 255.0 63.0 1.0 1.0
0.8608548 -1.0167835 1.7055709 -0.13934791088104248 -0.07216986268758774 -0.9876101016998291 255.0 63.0 1.0 1.0
3.8656089 -5.0927529 -2.1914752 0.11101966351270676 0.03426554799079895 0.9932273030281067 31.0 19.0 1.0 1.0
7.6386023 -14.974364 0.5440433 -0.01565287820994854 -0.9778174757957458 -0.2088732123374939 16.0 33.0 2.0 6.0
0.45995432 -1.1301966 -1.6079444 0.15923745930194855 0.06060086935758591 0.985378623008728 255.0 0.0 1.0 1.0
0.47362664 -1.1297072 -1.6143764 0.1966477632522583 0.03388125076889992 0.9798885583877563 255.0 0.0 1.0 1.0
0.51817656 -1.2473211 -1.637283 0.12295152992010117 0.024753514677286148 0.9921038746833801 255.0 1.0 1.0 1.0
0.53020513 -1.2394109 -1.634264 0.12295152992010117 0.024753514677286148 0.9921038746833801 255.0 1.0 1.0 1.0
0.56886548 -1.3472807 -1.6415251 0.14587871730327606 0.0354694128036499 0.9886664152145386 255.0 2.0 1.0 1.0
0.58505619 -1.3460574 -1.6475698 0.14587871730327606 0.0354694128036499 0.9886664152145386 255.0 2.0 1.0 1.0
0.62448221 -1.4577233 -1.652697 0.14432883262634277 -0.0016376323765143752 0.9895284175872803 255.0 3.0 1.0 1.0
0.63747662 -1.445959 -1.6470026 0.14374178647994995 -0.0010381480678915977 0.9896146059036255 253.0 3.0 1.0 1.0
0.68666363 -1.5840077 -1.676482 0.16236425936222076 0.04238903895020485 0.985819935798645 255.0 4.0 1.0 1.0
0.69853842 -1.5661681 -1.6654201 0.1208452358841896 0.04264423996210098 0.9917550086975098 253.0 4.0 1.0 1.0
0.73785472 -1.6846985 -1.6673625 0.1425076425075531 0.060781028121709824 0.9879257678985596 253.0 5.0 1.0 1.0
0.76517767 -1.6984239 -1.6889457 0.1425076425075531 0.060781028121709824 0.9879257678985596 255.0 5.0 1.0 1.0
0.80992281 -1.8323846 -1.6984771 0.14189907908439636 0.031190386041998863 0.9893895387649536 250.0 6.0 1.0 1.0
0.82527739 -1.8153911 -1.6908146 0.14167317748069763 0.06443062424659729 0.9878144860267639 244.0 6.0 1.0 1.0
0.88155907 -1.9792562 -1.7201332 0.15792660415172577 0.016579221934080124 0.987311601638794 255.0 7.0 1.0 1.0
0.90483725 -1.9755354 -1.7252135 0.09783836454153061 0.048316314816474915 0.9940287470817566 255.0 7.0 1.0 1.0
0.94866806 -2.1158326 -1.725754 0.10270320624113083 0.054102037101984024 0.99323970079422 255.0 8.0 1.0 1.0
0.96405607 -2.0911312 -1.7139251 0.10270320624113083 0.054102037101984024 0.99323970079422 244.0 8.0 1.0 1.0
1.030349 -2.2829731 -1.7482467 0.11724924296140671 -0.014920972287654877 0.9929904341697693 244.0 9.0 1.0 1.0
1.0486755 -2.260076 -1.7392101 0.11724924296140671 -0.014920972287654877 0.9929904341697693 241.0 9.0 1.0 1.0
1.1176809 -2.4649878 -1.7710545 0.08642040938138962 0.06860264390707016 0.9938939213752747 250.0 10.0 1.0 1.0
1.1391873 -2.4439654 -1.7646149 0.1443266123533249 0.051211509853601456 0.9882040619850159 244.0 10.0 1.0 1.0
1.2028679 -2.6394165 -1.7786688 0.11719891428947449 0.06892455369234085 0.9907137155532837 232.0 11.0 1.0 1.0
1.2318795 -2.6296828 -1.7809013 0.13855433464050293 0.061285119503736496 0.9884567856788635 232.0 11.0 1.0 1.0
1.3093609 -2.859977 -1.8049206 0.07536254823207855 0.05026574432849884 0.9958885312080383 235.0 12.0 1.0 1.0
1.3407073 -2.8491659 -1.807065 0.09943415224552155 -0.006387481465935707 0.9950236678123474 229.0 12.0 1.0 1.0
1.416536 -3.0828891 -1.8209283 0.15817922353744507 0.03975912556052208 0.986609697341919 214.0 13.0 1.0 1.0
1.4472306 -3.064616 -1.8192015 0.0947059839963913 0.0200814176350832 0.995302677154541 211.0 13.0 1.0 1.0
1.54728 -3.3569036 -1.8524363 0.13168641924858093 0.05965936556458473 0.9894946217536926 193.0 14.0 1.0 1.0
1.5869294 -3.3501282 -1.8579941 0.08803095668554306 0.006453723181039095 0.9960968494415283 211.0 14.0 1.0 1.0
1.7044591 -3.6864398 -1.8968965 0.08126624673604965 0.02073117159307003 0.9964767098426819 196.0 15.0 1.0 1.0
1.7382978 -3.6584809 -1.8920145 0.08125430345535278 0.026901843026280403 0.9963302612304688 181.0 15.0 1.0 1.0
2.678349 -3.6635125 -1.9786662 0.13311536610126495 0.04099389165639877 0.9902524352073669 145.0 16.0 1.0 1.0
2.7187502 -3.6381111 -1.9804733 0.13295789062976837 0.06356996297836304 0.9890809655189514 163.0 16.0 1.0 1.0
2.9592404 -4.0556626 -2.0283575 0.12551327049732208 0.10657257586717606 0.9863512516021729 112.0 17.0 1.0 1.0
3.0237029 -4.0540919 -2.0435767 0.20658230781555176 0.07601000368595123 0.9754723310470581 130.0 17.0 1.0 1.0
3.3036013 -4.5381975 -2.0929587 0.19482985138893127 0.07209334522485733 0.9781839847564697 16.0 18.0 1.0 1.0
3.3643529 -4.5213008 -2.1016037 0.15273089706897736 0.059533413499593735 0.9864730834960938 37.0 18.0 1.0 1.0
3.7603402 -5.1758604 -2.1922033 0.14767925441265106 0.034751445055007935 0.9884245991706848 34.0 19.0 1.0 1.0
3.8120675 -5.1330609 -2.1911995 0.08374789357185364 0.016420572996139526 0.9963517189025879 33.0 19.0 1.0 1.0
3.9640429 -5.4649091 -2.1152141 0.028309421613812447 -0.9986392259597778 0.04379813373088837 229.0 20.0 1.0 1.0
3.9824042 -5.370873 -2.0951846 -0.08778077363967896 -0.9953708648681641 -0.03913094103336334 238.0 20.0 1.0 1.0
3.9640944 -5.4735889 -1.9240913 0.03404652327299118 -0.9993428587913513 -0.01243728306144476 232.0 21.0 1.0 1.0
3.9822819 -5.3791218 -1.9057724 -0.10022308677434921 -0.9923725724220276 0.07177667319774628 250.0 21.0 1.0 1.0
4.1608171 -5.7543983 -1.8209425 0.14521446824073792 -0.18461117148399353 0.9720244407653809 175.0 22.0 1.0 1.0
4.1724877 -5.644989 -1.8003918 -0.4271029829978943 -0.20600013434886932 0.8804242610931396 61.0 22.0 1.0 1.0
4.2431226 -5.8754153 -1.6591033 -0.9921151995658875 -0.013636468909680843 0.12458504736423492 255.0 23.0 1.0 1.0
4.339139 -5.8776431 -1.6728333 -0.9936060905456543 0.09653446078300476 0.0585484504699707 241.0 23.0 1.0 1.0
4.2552671 -5.8972707 -1.4679033 -0.9896934032440186 -0.04054998978972435 0.13734140992164612 253.0 24.0 1.0 1.0
4.3447084 -5.8901892 -1.4777412 -0.975341796875 0.1916108876466751 0.10951510816812515 247.0 24.0 1.0 1.0
4.258862 -5.909483 -1.2746371 -0.9938342571258545 -0.022439047694206238 0.1085817739367485 250.0 25.0 1.0 1.0
4.3555574 -5.9120922 -1.2853225 -0.9918732643127441 0.0811130702495575 0.0980214849114418 244.0 25.0 1.0 1.0
4.2938375 -5.9609551 -1.0904878 -0.9889048337936401 -0.06956497579813004 0.13125471770763397 255.0 26.0 1.0 1.0
4.3771348 -5.9442935 -1.0961163 -0.9730477929115295 0.1755455881357193 0.14953874051570892 253.0 26.0 1.0 1.0
4.2831125 -5.9511995 -0.8972792 -0.9891277551651001 -0.07841236144304276 0.12441016733646393 253.0 27.0 1.0 1.0
4.3734283 -5.9443645 -0.90345383 -0.9890863299369812 0.08566044270992279 0.11987728625535965 244.0 27.0 1.0 1.0
4.2914486 -5.9657426 -0.70821124 -0.9851067066192627 -0.0734901875257492 0.1554473638534546 255.0 28.0 1.0 1.0
4.3890629 -5.9685674 -0.71431386 -0.9910248517990112 0.06367718428373337 0.11753696948289871 253.0 28.0 1.0 1.0
4.3178782 -6.0054827 -0.52167386 -0.9887501001358032 -0.0899217277765274 0.1195300742983818 255.0 29.0 1.0 1.0
4.385262 -5.9663486 -0.52257758 -0.9908260107040405 0.0872875526547432 0.10317397862672806 247.0 29.0 1.0 1.0
4.3098931 -5.9951591 -0.33155027 -0.9822450280189514 -0.1480521857738495 0.11521917581558228 255.0 30.0 1.0 1.0
4.3984699 -5.9851112 -0.33387053 -0.9839160442352295 0.08786346763372421 0.15552900731563568 253.0 30.0 1.0 1.0
4.3293934 -6.0230942 -0.14409354 -0.967513918876648 -0.19350022077560425 0.16271013021469116 255.0 31.0 1.0 1.0
4.4064465 -5.9967632 -0.14490443 -0.9964984655380249 0.006533559877425432 0.08335624635219574 250.0 31.0 1.0 1.0
4.8657804 -10.321115 0.080478281 -0.6424407958984375 -0.7648187875747681 0.04818723350763321 181.0 32.0 1.0 1.0
4.9805822 -10.284005 0.080035143 -0.698189914226532 -0.711128294467926 0.08262836188077927 226.0 32.0 1.0 1.0
4.8796964 -10.356845 0.37245461 -0.058703720569610596 -0.9970718026161194 0.04900607839226723 184.0 33.0 1.0 1.0
4.9844193 -10.298002 0.37163988 -0.9090888500213623 -0.41236361861228943 0.05927712470293045 223.0 33.0 1.0 1.0
4.3272176 -9.1811609 0.58951116 -0.19987927377223969 -0.038033436983823776 -0.9790820479393005 33.0 34.0 1.0 1.0
4.3831282 -9.0527086 0.58369768 -0.16533635556697845 -0.08891423046588898 -0.9822209477424622 36.0 34.0 1.0 1.0
3.8500137 -8.16959 0.75631225 -0.12006190419197083 -0.6682233214378357 -0.7342090606689453 35.0 35.0 1.0 1.0
3.9492691 -8.1575699 0.75853908 -0.11062336713075638 -0.9205189943313599 -0.3747096657752991 91.0 35.0 1.0 1.0
3.2627475 -6.9272008 0.8390528 -0.12899142503738403 -0.03183211758732796 -0.9911347031593323 76.0 36.0 1.0 1.0
3.3178198 -6.856904 0.83433151 -0.17531834542751312 -0.08683895319700241 -0.9806744456291199 37.0 36.0 1.0 1.0
2.9555495 -6.2784753 0.94199747 -0.49669554829597473 -0.0627693459391594 -0.8656521439552307 106.0 37.0 1.0 1.0
3.0004587 -6.2044077 0.93521374 -0.541103720664978 -0.04172265902161598 -0.839920163154602 94.0 37.0 1.0 1.0
2.6696646 -5.6768713 1.0160218 -0.06976769119501114 -0.01767583005130291 -0.9974066019058228 154.0 38.0 1.0 1.0
2.7255564 -5.6415458 1.0144402 -0.11090865731239319 -0.00362824066542089 -0.9938239455223083 145.0 38.0 1.0 1.0
2.4407651 -5.1929812 1.0817103 -0.1204555481672287 -0.10696074366569519 -0.9869396090507507 202.0 39.0 1.0 1.0
2.4830775 -5.1424131 1.0762515 -0.06084704026579857 -0.06094799190759659 -0.996284544467926 175.0 39.0 1.0 1.0
2.244889 -4.7809982 1.1383258 -0.26879629492759705 -0.055361684411764145 -0.9616047143936157 184.0 40.0 1.0 1.0
2.2897639 -4.7467208 1.1355443 -0.600367546081543 -0.04402066394686699 -0.7985117435455322 199.0 40.0 1.0 1.0
2.0704641 -4.4158964 1.185112 -0.12835504114627838 0.0006206724210642278 -0.9917280673980713 232.0 41.0 1.0 1.0
2.1098771 -4.3800244 1.1811017 -0.13792310655117035 -0.041041068732738495 -0.9895923137664795 220.0 41.0 1.0 1.0
1.9347429 -4.1324029 1.2352594 -0.10001698136329651 -0.03388894721865654 -0.9944084882736206 255.0 42.0 1.0 1.0
1.9745942 -4.1050196 1.2329499 -0.10641588270664215 -0.029290635138750076 -0.9938902258872986 255.0 42.0 1.0 1.0
1.785853 -3.8215778 1.2626129 -0.12876667082309723 -0.10114231705665588 -0.9865036010742188 232.0 43.0 1.0 1.0
1.8307781 -3.8130982 1.2658453 -0.12943035364151 -0.0008215361158363521 -0.9915881156921387 247.0 43.0 1.0 1.0
1.6767786 -3.5949423 1.3027414 -0.14900512993335724 -0.10719946771860123 -0.9830084443092346 255.0 44.0 1.0 1.0
1.7192872 -3.5875373 1.306289 -0.3054756224155426 -0.0495428703725338 -0.950910210609436 253.0 44.0 1.0 1.0
1.5921481 -3.4199357 1.3516876 -0.18515947461128235 -0.04865628480911255 -0.9815031886100769 255.0 45.0 1.0 1.0
1.6262802 -3.3997474 1.3501563 -0.4389928877353668 -0.03823335841298103 -0.8976767063140869 255.0 45.0 1.0 1.0
1.4775798 -3.1812139 1.3633966 -0.13338741660118103 -0.03555610030889511 -0.9904259443283081 255.0 46.0 1.0 1.0
1.5188689 -3.1824644 1.3704647 -0.13325391709804535 -0.057117246091365814 -0.9894345998764038 255.0 46.0 1.0 1.0
1.3940829 -3.0070314 1.3930272 -0.11556913703680038 -0.04063655436038971 -0.9924678206443787 255.0 47.0 1.0 1.0
1.4191866 -2.9790187 1.386673 -0.09857053309679031 -0.058302994817495346 -0.9934206604957581 255.0 47.0 1.0 1.0
1.8303289 -2.5026867 1.4037586 -0.12478246539831161 -0.04522611200809479 -0.991152822971344 255.0 48.0 1.0 1.0
1.8542874 -2.4805343 1.4019686 -0.2207973599433899 -0.05736220255494118 -0.9736313819885254 255.0 48.0 1.0 1.0
1.7288413 -2.3578866 1.4227525 -0.13301514089107513 -0.01536357682198286 -0.9909949898719788 255.0 49.0 1.0 1.0
1.7577828 -2.3454854 1.4261162 -0.13244690001010895 -0.0935933068394661 -0.9867615103721619 255.0 49.0 1.0 1.0
1.6468807 -2.2395411 1.4506243 -0.12381794303655624 -0.0681874006986618 -0.9899594187736511 255.0 50.0 1.0 1.0
1.6660147 -2.216574 1.4467995 -0.12381794303655624 -0.0681874006986618 -0.9899594187736511 255.0 50.0 1.0 1.0
1.5758693 -2.135133 1.4823381 -0.5017622709274292 0.0011497512459754944 -0.86500483751297 255.0 51.0 1.0 1.0
1.6065837 -2.1297474 1.490013 -0.5598056316375732 -0.02867339923977852 -0.8281276822090149 255.0 51.0 1.0 1.0
1.4959654 -2.0201497 1.5008179 0.07630711048841476 -0.05609683319926262 -0.995505154132843 247.0 52.0 1.0 1.0
1.5004958 -1.9825276 1.4843125 -0.07841210812330246 -0.05608763545751572 -0.995341956615448 238.0 52.0 1.0 1.0
1.432832 -1.9270564 1.5306913 -0.27625566720962524 -0.05105479806661606 -0.9597271680831909 255.0 53.0 1.0 1.0
1.446846 -1.903962 1.5241368 -0.2890406548976898 -0.15944209694862366 -0.9439458250999451 255.0 53.0 1.0 1.0
1.3399376 -1.7934304 1.5232211 -0.11191500723361969 -0.07000257074832916 -0.9912490248680115 255.0 54.0 1.0 1.0
1.3586782 -1.7793782 1.5231192 -0.22135178744792938 -0.06570149213075638 -0.9729782342910767 255.0 54.0 1.0 1.0
1.2708744 -1.6927809 1.5368329 -0.149919331073761 -0.07065988332033157 -0.9861699938774109 255.0 55.0 1.0 1.0
1.2787163 -1.6666071 1.5249952 -0.1502496749162674 -0.02455953322350979 -0.9883430004119873 255.0 55.0 1.0 1.0
1.2062039 -1.5971071 1.550686 -0.14354769885540009 -0.05543161556124687 -0.9880896806716919 255.0 56.0 1.0 1.0
1.2171025 -1.5769508 1.5432508 -0.14354769885540009 -0.05543161556124687 -0.9880896806716919 250.0 56.0 1.0 1.0
1.1453032 -1.5063384 1.565467 -0.12791268527507782 -0.05219106748700142 -0.9904112219810486 255.0 57.0 1.0 1.0
1.1648291 -1.4992141 1.5704769 -0.1564033478498459 -0.05197571963071823 -0.986324667930603 255.0 57.0 1.0 1.0
1.0803871 -1.4109 1.5710731 -0.12673157453536987 -0.06638320535421371 -0.9897132515907288 253.0 58.0 1.0 1.0
1.0932907 -1.3972261 1.5683448 -0.12691015005111694 -0.039987657219171524 -0.9911078810691833 247.0 58.0 1.0 1.0
1.0242378 -1.3266201 1.5867802 -0.0488390177488327 -0.8102889060974121 -0.5839921236038208 250.0 59.0 1.0 1.0
1.041705 -1.3204685 1.5922009 -0.13353043794631958 -0.760316789150238 -0.635679304599762 255.0 59.0 1.0 1.0
1.0040761 -1.2880112 1.6591166 -0.20831581950187683 -0.7175248265266418 -0.6646522879600525 255.0 60.0 1.0 1.0
0.99831986 -1.253337 1.6277045 -0.03796835243701935 -0.8730500936508179 -0.48615023493766785 255.0 60.0 1.0 1.0
0.95976329 -1.217048 1.6940272 -0.07633142173290253 -0.02230474166572094 -0.9968329668045044 255.0 61.0 1.0 1.0
0.97249091 -1.2070165 1.6939573 -0.07633142173290253 -0.02230474166572094 -0.9968329668045044 255.0 61.0 1.0 1.0
0.89569682 -1.1214623 1.6938531 -0.15848121047019958 -0.06411825865507126 -0.9852779507637024 255.0 62.0 1.0 1.0
0.90415823 -1.1080945 1.6876884 -0.15848121047019958 -0.06411825865507126 -0.9852779507637024 253.0 62.0 1.0 1.0
0.84234667 -1.038305 1.7119817 -0.16713033616542816 -0.05770285800099373 -0.9842448234558105 255.0 63.0 1.0 1.0
0.85477966 -1.0314126 1.7150729 -0.19484570622444153 -0.037289515137672424 -0.980124831199646 255.0 63.0 1.0 1.0
0.43879852 -1.1464875 -1.6174041 0.12956243753433228 0.030352512374520302 0.9911065101623535 255.0 0.0 1.0 1.0
0.45343533 -1.148508 -1.6270218 0.12956243753433228 0.030352512374520302 0.9911065101623535 255.0 0.0 1.0 1.0
0.48548561 -1.2414262 -1.6155794 0.13147246837615967 0.03316481411457062 0.9907649755477905 255.0 1.0 1.0 1.0
0.49750426 -1.2338393 -1.6125594 0.15557128190994263 0.033047884702682495 0.987271785736084 255.0 1.0 1.0 1.0
0.53858501 -1.3540823 -1.6354344 0.15659256279468536 0.07826883345842361 0.9845572113990784 255.0 2.0 1.0 1.0
0.55474615 -1.3532205 -1.6414781 0.15690279006958008 0.04673456773161888 0.9865077137947083 255.0 2.0 1.0 1.0
0.59383988 -1.4706143 -1.6525677 0.17214085161685944 0.05561978369951248 0.9835008978843689 255.0 3.0 1.0 1.0
0.6070776 -1.4591243 -1.6468735 0.14427608251571655 0.02708369307219982 0.9891667366027832 253.0 3.0 1.0 1.0
0.64468527 -1.5769182 -1.6540509 0.16219474375247955 0.062290482223033905 0.9847906827926636 250.0 4.0 1.0 1.0
0.66115832 -1.570006 -1.6541339 0.16236425936222076 0.04238903895020485 0.985819935798645 250.0 4.0 1.0 1.0
0.70469266 -1.7053961 -1.6725838 0.16275173425674438 0.027741463854908943 0.9862769246101379 247.0 5.0 1.0 1.0
0.72482568 -1.7033025 -1.6780465 0.1425614207983017 0.054239846765995026 0.9882986545562744 255.0 5.0 1.0 1.0
0.77139056 -1.8490827 -1.6983116 0.07777650654315948 0.038229070603847504 0.996237576007843 255.0 6.0 1.0 1.0
0.79190862 -1.8436307 -1.7009956 0.07778918743133545 -0.033703844994306564 0.996399998664856 255.0 6.0 1.0 1.0
0.8350811 -1.9858708 -1.7100061 0.16086269915103912 0.06561727821826935 0.9847931265830994 255.0 7.0 1.0 1.0
0.85831213 -1.9826906 -1.7150849 0.16360986232757568 0.06842679530382156 0.9841492176055908 255.0 7.0 1.0 1.0
0.90541667 -2.1383333 -1.7279493 0.08127296715974808 0.012088523246347904 0.9966185092926025 253.0 8.0 1.0 1.0
0.92519188 -2.122772 -1.7232858 0.11889644712209702 0.01204261276870966 0.9928335547447205 250.0 8.0 1.0 1.0
0.97975779 -2.2981596 -1.7434593 0.08442316949367523 0.06854182481765747 0.9940697550773621 250.0 9.0 1.0 1.0
1.0077137 -2.2967072 -1.7504489 0.08442316949367523 0.06854182481765747 0.9940697550773621 255.0 9.0 1.0 1.0
1.0618768 -2.4787698 -1.7642579 0.06608797609806061 0.022117462009191513 0.997568666934967 241.0 10.0 1.0 1.0
1.0864205 -2.464371 -1.7621986 0.08654557913541794 0.04267359524965286 0.9953335523605347 235.0 10.0 1.0 1.0
1.1513835 -2.6735752 -1.7846984 0.10921218991279602 0.022881504148244858 0.9937551021575928 241.0 11.0 1.0 1.0
1.1806916 -2.6644084 -1.7869307 0.12185930460691452 0.06888562440872192 0.9901540875434875 235.0 11.0 1.0 1.0
1.2409289 -2.8678162 -1.7927117 0.05360237881541252 -0.025858290493488312 0.998227596282959 220.0 12.0 1.0 1.0
1.2694747 -2.8514132 -1.7908726 0.07540173828601837 0.03858589380979538 0.9964064359664917 220.0 12.0 1.0 1.0
1.3474612 -3.1023343 -1.8149679 0.14337952435016632 0.11151741445064545 0.9833648204803467 208.0 13.0 1.0 1.0
1.3827416 -3.0944076 -1.8189156 0.1491347700357437 0.026889339089393616 0.9884512424468994 217.0 13.0 1.0 1.0
1.4737893 -3.3821731 -1.8485399 0.12919601798057556 0.06806417554616928 0.9892803430557251 199.0 14.0 1.0 1.0
1.5076569 -3.3632069 -1.8469267 0.14481724798679352 0.07137550413608551 0.9868807792663574 196.0 14.0 1.0 1.0
1.6167301 -3.6982434 -1.8847041 0.14235971868038177 0.07336181402206421 0.9870926141738892 172.0 15.0 1.0 1.0
1.659817 -3.6909423 -1.8899785 0.12849943339824677 0.05818849056959152 0.9900009632110596 190.0 15.0 1.0 1.0
2.6010466 -3.7189834 -1.978278 0.1064770370721817 0.04688044264912605 0.9932094216346741 154.0 16.0 1.0 1.0
2.6334431 -3.6825035 -1.9736894 0.09049038589000702 0.037302177399396896 0.9951984882354736 157.0 16.0 1.0 1.0
2.8651721 -4.1047716 -2.0219336 0.11754652857780457 0.06355676800012589 0.9910314679145813 97.0 17.0 1.0 1.0
2.916605 -4.0865273 -2.0281577 0.1641485095024109 0.07042735815048218 0.9839183688163757 109.0 17.0 1.0 1.0
3.2142608 -4.6158161 -2.096669 0.07314813882112503 0.07903838902711868 0.9941842555999756 28.0 18.0 1.0 1.0
3.242851 -4.5543265 -2.0843482 0.07385600358247757 -0.018322741612792015 0.9971005916595459 34.0 18.0 1.0 1.0
3.6360049 -5.231935 -2.1825767 0.08966431766748428 -0.0001246656902367249 0.9959720373153687 38.0 19.0 1.0 1.0
3.6883898 -5.1903892 -2.1815724 0.10347091406583786 0.07096043974161148 0.9920979142189026 35.0 19.0 1.0 1.0
4.0553789 -5.8449001 -2.2282455 -0.8311327695846558 -0.48364031314849854 0.2744274139404297 244.0 20.0 1.0 1.0
3.9684057 -5.593411 -2.1484337 0.024344734847545624 -0.9986221790313721 0.04648713394999504 199.0 20.0 1.0 1.0
3.9843657 -5.7516971 -1.9914188 0.3012833595275879 -0.9493803977966309 -0.08891033381223679 181.0 21.0 1.0 1.0
3.9710042 -5.6059594 -1.9555892 0.011270297691226006 -0.9993870258331299 -0.03314372897148132 235.0 21.0 1.0 1.0
4.0702143 -5.8850832 -1.8342415 -0.8829274773597717 -0.4327664375305176 0.18207761645317078 253.0 22.0 1.0 1.0
4.1181912 -5.8230724 -1.8286074 -0.6321166753768921 -0.5114168524742126 0.5821351408958435 229.0 22.0 1.0 1.0
4.1058168 -5.9439168 -1.6531233 -0.8981760144233704 -0.4203929901123047 0.12864583730697632 255.0 23.0 1.0 1.0
4.154336 -5.8814101 -1.6480981 -0.968224823474884 -0.21840056777000427 0.1218273937702179 255.0 23.0 1.0 1.0
4.0929322 -5.9303932 -1.4538215 -0.9483475685119629 -0.30190524458885193 0.09741686284542084 253.0 24.0 1.0 1.0
4.1774087 -5.9191818 -1.4620693 -0.9552960395812988 -0.26088830828666687 0.13909336924552917 255.0 24.0 1.0 1.0
4.1005793 -5.9488621 -1.2636666 -0.9261930584907532 -0.35227707028388977 0.13441425561904907 255.0 25.0 1.0 1.0
4.183073 -5.9345284 -1.2702061 -0.9532417058944702 -0.2821480631828308 0.1082717776298523 255.0 25.0 1.0 1.0
4.1186213 -5.9780211 -1.0769322 -0.8758100867271423 -0.4613167643547058 0.14192746579647064 253.0 26.0 1.0 1.0
4.1855531 -5.9409876 -1.0784409 -0.9770353436470032 -0.16403692960739136 0.13599206507205963 253.0 26.0 1.0 1.0
4.1304584 -6.0004683 -0.89081591 -0.9159796237945557 -0.3824934959411621 0.12116079032421112 255.0 27.0 1.0 1.0
4.21592 -5.9893179 -0.89601231 -0.9450830221176147 -0.28127241134643555 0.16644510626792908 255.0 27.0 1.0 1.0
4.1406679 -6.0183325 -0.70335633 -0.8857834339141846 -0.4458640217781067 0.12881377339363098 255.0 28.0 1.0 1.0
4.2011795 -5.9713564 -0.70330799 -0.9639482498168945 -0.2183755785226822 0.15203966200351715 250.0 28.0 1.0 1.0
4.1481228 -6.0322161 -0.51568735 -0.8599143028259277 -0.48292478919029236 0.16532115638256073 255.0 29.0 1.0 1.0
4.2156615 -5.9949555 -0.51658726 -0.9403606057167053 -0.27556049823760986 0.1994701474905014 255.0 29.0 1.0 1.0
4.1629229 -6.0545492 -0.32929811 -0.8710125088691711 -0.4732806980609894 0.13169115781784058 255.0 30.0 1.0 1.0
4.2307034 -6.0171514 -0.3299953 -0.9551057815551758 -0.2610723376274109 0.1400507241487503 255.0 30.0 1.0 1.0
4.1727509 -6.0696626 -0.14244267 -0.8499196171760559 -0.4942048490047455 0.1827518343925476 255.0 31.0 1.0 1.0
4.2475929 -6.0419912 -0.14317133 -0.946246862411499 -0.2917238473892212 0.1396932452917099 255.0 31.0 1.0 1.0
4.8520331 -10.877447 0.084984101 0.01795695349574089 -0.9962546229362488 0.08458242565393448 142.0 32.0 1.0 1.0
4.8473082 -10.567905 0.082417876 -0.0008807173580862582 -0.9984002709388733 0.05653386563062668 136.0 32.0 1.0 1.0
4.806385 -10.781796 0.38501155 -0.05403320491313934 -0.994045078754425 0.09462978690862656 36.0 33.0 1.0 1.0
4.8740735 -10.632769 0.38093388 -0.010841639712452888 -0.9972168803215027 0.07376351952552795 145.0 33.0 1.0 1.0
4.1663299 -9.3427286 0.59501821 -0.08644724637269974 -0.00664910301566124 -0.9962342381477356 33.0 34.0 1.0 1.0
4.2622938 -9.2949905 0.59429139 -0.1329803317785263 -0.06374366581439972 -0.9890666604042053 34.0 34.0 1.0 1.0
3.5513141 -7.9644461 0.73105747 -0.19186358153820038 0.2737482786178589 -0.9424702525138855 67.0 35.0 1.0 1.0
3.7341993 -8.1442738 0.75064516 -0.21858765184879303 -0.13484393060207367 -0.9664556384086609 45.0 35.0 1.0 1.0
3.1232667 -7.0085211 0.8414489 -0.12561115622520447 -0.09291474521160126 -0.9877188801765442 49.0 36.0 1.0 1.0
3.1981666 -6.9790907 0.84151286 -0.018503032624721527 -0.11273781210184097 -0.9934524893760681 79.0 36.0 1.0 1.0
2.8216414 -6.3353434 0.94205189 -0.2872937023639679 -0.04191381484270096 -0.956925094127655 100.0 37.0 1.0 1.0
2.8878536 -6.3054986 0.94171625 -0.5277995467185974 0.01109256036579609 -0.8492964506149292 100.0 37.0 1.0 1.0
2.5516396 -5.7351036 1.0171956 -0.09999524056911469 0.038428258150815964 -0.9942455291748047 148.0 38.0 1.0 1.0
2.6066554 -5.69735 1.014975 -0.16190187633037567 -0.049423471093177795 -0.9855683445930481 133.0 38.0 1.0 1.0
2.3233392 -5.2249513 1.0784959 -0.12736648321151733 -0.07958227396011353 -0.9886578917503357 163.0 39.0 1.0 1.0
2.3795886 -5.2039666 1.0789595 -0.18324756622314453 -0.027592210099101067 -0.9826794862747192 172.0 39.0 1.0 1.0
2.1536403 -4.8483534 1.1438279 -0.34929075837135315 -0.07301769405603409 -0.9341651201248169 202.0 40.0 1.0 1.0
2.2075698 -4.8327084 1.1452552 0.18037159740924835 -0.05078531429171562 -0.9822865724563599 196.0 40.0 1.0 1.0
1.9773829 -4.4582295 1.1855259 -0.12045663595199585 -0.08633890748023987 -0.988956868648529 217.0 41.0 1.0 1.0
2.0110898 -4.4090438 1.1777402 -0.10496865212917328 -0.02857835218310356 -0.9940648078918457 199.0 41.0 1.0 1.0
1.8445044 -4.1648884 1.2335571 -0.15397809445858002 -0.06456015259027481 -0.9859628677368164 255.0 42.0 1.0 1.0
1.8736496 -4.11378 1.223937 -0.11382662504911423 -0.0726567804813385 -0.9908402562141418 220.0 42.0 1.0 1.0
1.7192216 -3.8896205 1.2732862 -0.17457836866378784 -0.047411199659109116 -0.983501136302948 255.0 43.0 1.0 1.0
1.736111 -3.8191328 1.2558894 -0.17970240116119385 -0.07968682795763016 -0.9804881811141968 217.0 43.0 1.0 1.0
1.6040485 -3.636152 1.3055711 -0.08268147706985474 -0.028518429026007652 -0.9961678385734558 247.0 44.0 1.0 1.0
1.6499146 -3.6365294 1.311614 -0.08271237462759018 0.008149446919560432 -0.9965401291847229 255.0 44.0 1.0 1.0
1.4988024 -3.4041936 1.3331288 0.2132665514945984 -0.110683374106884 -0.970704197883606 223.0 45.0 1.0 1.0
1.543715 -3.4089658 1.3410379 -0.17469660937786102 0.0018721476662904024 -0.9846205711364746 235.0 45.0 1.0 1.0
1.4149898 -3.2216227 1.3680367 -0.22946488857269287 -0.0926278829574585 -0.9688993096351624 255.0 46.0 1.0 1.0
1.4456114 -3.1999016 1.3649702 -0.23042739927768707 0.015663960948586464 -0.9729634523391724 255.0 46.0 1.0 1.0
1.3203068 -3.0118372 1.3824645 -0.14932739734649658 -0.09675931930541992 -0.9840421080589294 253.0 47.0 1.0 1.0
1.3593795 -3.0147293 1.3900483 -0.16092054545879364 -0.025803696364164352 -0.9866300225257874 255.0 47.0 1.0 1.0
1.771119 -2.5314305 1.3990752 -0.11676383018493652 -0.06575668603181839 -0.9909804463386536 253.0 48.0 1.0 1.0
1.7912037 -2.5039215 1.3939879 -0.12459628283977509 -0.07086092233657837 -0.989673912525177 247.0 48.0 1.0 1.0
1.6768869 -2.3905489 1.4212507 -0.10261094570159912 -0.05277068167924881 -0.993320882320404 253.0 49.0 1.0 1.0
