ply
format ascii 1.0
element vertex 418
property float x
property float y
property float z
property float nx
property float ny
property float nz
property float intensity
property float ring
property float return
property float label
end_header
-1.0118097 -0.58083719 -0.33016598 0.012211175635457039 0.9988760948181152 -0.045797862112522125 255.0 21.0 1.0 1.0
-1.018941 -0.59920049 -0.33453056 0.012211175635457039 0.9988760948181152 -0.045797862112522125 255.0 21.0 1.0 1.0
-1.0295973 -0.58986837 -0.3023085 -0.0014498145319521427 0.9999526143074036 -0.009624206461012363 255.0 22.0 1.0 1.0
-1.0300493 -0.60453683 -0.3042891 -0.0014498145319521427 0.9999526143074036 -0.009624206461012363 255.0 22.0 1.0 1.0
-1.0060068 -0.57542777 -0.26341972 0.00034994404995813966 0.9993345141410828 -0.036476098001003265 255.0 23.0 1.0 1.0
-1.0167511 -0.59578675 -0.26786104 0.00034994404995813966 0.9993345141410828 -0.036476098001003265 255.0 23.0 1.0 1.0
-1.0118866 -0.57809943 -0.23337215 0.017455929890275 0.9981657862663269 -0.05796925351023674 255.0 24.0 1.0 1.0
-1.0125473 -0.59262139 -0.2349484 0.017455929890275 0.9981657862663269 -0.05796925351023674 255.0 24.0 1.0 1.0
-1.0103599 -0.57630229 -0.20171772 0.013650457374751568 0.9838547706604004 -0.17844706773757935 255.0 25.0 1.0 1.0
-0.99406326 -0.58087915 -0.1996678 0.004020784515887499 0.9839670658111572 -0.17830507457256317 255.0 25.0 1.0 1.0
-1.0079795 -0.57425523 -0.17041728 -0.06984047591686249 0.9935092329978943 -0.08978746831417084 255.0 26.0 1.0 1.0
-0.99507666 -0.58078283 -0.16925611 0.029740318655967712 0.9955005049705505 -0.08996742963790894 255.0 26.0 1.0 1.0
-1.0219914 -0.5817771 -0.14213906 -0.0051702046766877174 0.9990397095680237 -0.04350830614566803 247.0 27.0 1.0 1.0
-1.015844 -0.59244204 -0.14214252 -0.03229028731584549 0.9985319972038269 -0.04348619654774666 241.0 27.0 1.0 1.0
-0.98705709 -0.56121099 -0.10773198 0.014265347272157669 0.9958195090293884 0.09022177755832672 255.0 28.0 1.0 1.0
-1.0052114 -0.58554429 -0.11038609 0.06009584292769432 0.9912775158882141 0.11729205399751663 255.0 28.0 1.0 1.0
-1.0135163 -0.57603484 -0.080517463 0.02798081375658512 0.9926835894584656 0.11745842546224594 255.0 29.0 1.0 1.0
-1.010878 -0.58861965 -0.080797277 0.06009584292769432 0.9912775158882141 0.11729205399751663 255.0 29.0 1.0 1.0
-0.9908514 -0.562702 -0.049520675 0.02816561423242092 0.9992398619651794 -0.02695358172059059 255.0 30.0 1.0 1.0
-0.9849059 -0.57304174 -0.049524017 0.010970056988298893 0.9995762705802917 -0.026962656527757645 255.0 30.0 1.0 1.0
-0.99858135 -0.56710249 -0.020671181 0.019523341208696365 0.9992671012878418 -0.03292679414153099 255.0 31.0 1.0 1.0
-0.99604595 -0.57953459 -0.020747246 0.004585531540215015 0.9994470477104187 -0.03293272480368614 255.0 31.0 1.0 1.0
-0.96042657 -0.33310536 0.0078870729 0.017358407378196716 0.9990593791007996 -0.03973677381873131 255.0 32.0 1.0 1.0
-0.98324281 -0.35259095 0.0080954731 0.017358407378196716 0.9990593791007996 -0.03973677381873131 255.0 32.0 1.0 1.0
-1.0015957 -0.34700379 0.035206519 0.03519345074892044 0.9980527758598328 -0.05149923637509346 255.0 33.0 1.0 1.0
-1.0091996 -0.36151263 0.035599094 0.03519345074892044 0.9980527758598328 -0.05149923637509346 255.0 33.0 1.0 1.0
-0.98161852 -0.33990002 0.061018486 0.025566555559635162 0.9986858367919922 -0.04441705718636513 255.0 34.0 1.0 1.0
-0.99304521 -0.35553905 0.061950538 0.025566555559635162 0.9986858367919922 -0.04441705718636513 255.0 34.0 1.0 1.0
-0.97606319 -0.3379859 0.087152019 0.014239206910133362 0.9966386556625366 -0.08067698776721954 255.0 35.0 1.0 1.0
-0.99123538 -0.35490084 0.088827059 0.014239206910133362 0.9966386556625366 -0.08067698776721954 255.0 35.0 1.0 1.0
-0.981273 -0.33941656 0.11439204 0.03479563444852829 0.9988002777099609 -0.03445778787136078 255.0 36.0 1.0 1.0
-1.0001295 -0.35770199 0.11701359 0.014284001663327217 0.9997739791870117 -0.01574697159230709 255.0 36.0 1.0 1.0
-0.97079021 -0.33542103 0.14000484 0.02798641286790371 0.9963850378990173 -0.08020956069231033 255.0 37.0 1.0 1.0
-0.97469157 -0.34822944 0.14108077 0.02798641286790371 0.9963850378990173 -0.08020956069231033 255.0 37.0 1.0 1.0
-0.97099054 -0.3349314 0.16689841 0.014265836216509342 0.9985021352767944 -0.05281990021467209 255.0 38.0 1.0 1.0
-0.98230737 -0.35038105 0.16945942 0.014265836216509342 0.9985021352767944 -0.05281990021467209 255.0 38.0 1.0 1.0
-0.97049969 -0.33420393 0.1940102 0.014284313656389713 0.9997954368591309 -0.014321548864245415 255.0 39.0 1.0 1.0
-0.98175997 -0.34961686 0.1969769 0.014284313656389713 0.9997954368591309 -0.014321548864245415 255.0 39.0 1.0 1.0
-0.96184033 -0.33085647 0.2196862 0.02028661221265793 0.9974804520606995 -0.06797876954078674 255.0 40.0 1.0 1.0
-0.98042798 -0.34876731 0.22474778 0.02028661221265793 0.9974804520606995 -0.06797876954078674 255.0 40.0 1.0 1.0
-0.97103208 -0.33327141 0.24989973 0.01658470928668976 0.9968482851982117 -0.07757902890443802 255.0 41.0 1.0 1.0
-0.99313033 -0.35251653 0.25651705 0.01658470928668976 0.9968482851982117 -0.07757902890443802 255.0 41.0 1.0 1.0
-0.95748979 -0.32788688 0.27438453 0.02193787880241871 0.998898446559906 -0.04147930070757866 255.0 42.0 1.0 1.0
-0.95400673 -0.33788905 0.27438089 0.02193787880241871 0.998898446559906 -0.04147930070757866 255.0 42.0 1.0 1.0
-0.98321646 -0.33575076 0.31134769 0.018835291266441345 0.9985899925231934 -0.0496298149228096 255.0 43.0 1.0 1.0
-0.97603697 -0.34474561 0.3101958 0.018835291266441345 0.9985899925231934 -0.0496298149228096 255.0 43.0 1.0 1.0
-0.96457756 -0.3284573 0.33496317 0.018835291266441345 0.9985899925231934 -0.0496298149228096 255.0 44.0 1.0 1.0
-0.95392019 -0.33600831 0.33246121 0.0188433937728405 0.9990195631980896 -0.040059685707092285 255.0 44.0 1.0 1.0
-0.95604646 -0.3246325 0.36205307 0.02623068168759346 0.9959326386451721 -0.0861983373761177 255.0 45.0 1.0 1.0
-0.98101693 -0.34460375 0.37285119 0.02623068168759346 0.9959326386451721 -0.0861983373761177 255.0 45.0 1.0 1.0
-0.96810216 -0.32760829 0.39749756 0.026227647438645363 0.9958174228668213 -0.08751940727233887 255.0 46.0 1.0 1.0
-0.96814036 -0.33895382 0.3989439 0.026227647438645363 0.9958174228668213 -0.08751940727233887 255.0 46.0 1.0 1.0
-0.96131247 -0.32438821 0.42660323 0.020801503211259842 0.9976879954338074 -0.06469998508691788 255.0 47.0 1.0 1.0
-0.96482867 -0.33686131 0.4297007 0.032265808433294296 0.997384250164032 -0.06468028575181961 255.0 47.0 1.0 1.0
-0.96312106 -0.55470973 0.5045206 0.02329884096980095 0.997466504573822 -0.06721285730600357 255.0 48.0 1.0 1.0
-0.96667385 -0.57031143 0.50947803 0.021075161173939705 0.9964638948440552 -0.08133627474308014 255.0 48.0 1.0 1.0
-0.95628071 -0.55211455 0.53863853 0.021112892776727676 0.9982478618621826 -0.05527789518237114 255.0 49.0 1.0 1.0
-0.95135063 -0.55082953 0.57495832 0.02819417417049408 0.9955468773841858 -0.08995163440704346 247.0 50.0 1.0 1.0
-0.94553441 -0.56075513 0.57495517 0.02819417417049408 0.9955468773841858 -0.08995163440704346 244.0 50.0 1.0 1.0
-0.95717865 -0.55600339 0.61965841 0.03083874098956585 0.9950730800628662 -0.09422583878040314 250.0 51.0 1.0 1.0
-0.95430762 -0.56777418 0.62160933 0.0309238750487566 0.9978200793266296 -0.05829716473817825 253.0 51.0 1.0 1.0
-0.92575324 -0.53948605 0.64100766 0.026868438348174095 0.9974340796470642 -0.06635837256908417 232.0 52.0 1.0 1.0
-0.93184626 -0.55618167 0.64922017 0.02687368355691433 0.9976286888122559 -0.06336183100938797 235.0 52.0 1.0 1.0
-0.94596785 -0.55371773 0.70002985 0.05732601881027222 0.9939506649971008 -0.09367965161800385 247.0 53.0 1.0 1.0
-0.93434054 -0.56011885 0.69572002 0.03779527172446251 0.9959285855293274 -0.08183933794498444 235.0 53.0 1.0 1.0
-0.92916268 -0.546507 0.7347753 0.042855262756347656 0.9972155094146729 -0.06102871894836426 238.0 54.0 1.0 1.0
-0.92905533 -0.55961144 0.73927885 0.042855262756347656 0.9972155094146729 -0.06102871894836426 238.0 54.0 1.0 1.0
-0.94447553 -0.5581966 0.79790699 0.029554232954978943 0.9984397292137146 -0.04737650230526924 253.0 55.0 1.0 1.0
-0.94411784 -0.57139927 0.8026101 0.040327392518520355 0.9985156059265137 -0.03660917282104492 253.0 55.0 1.0 1.0
-0.92659718 -0.55091965 0.8366183 0.023571079596877098 0.9991322755813599 -0.03433670103549957 235.0 56.0 1.0 1.0
-0.92618001 -0.56387198 0.84152091 0.02964789606630802 0.9986637234687805 -0.04232962802052498 229.0 56.0 1.0 1.0
-0.92267567 -0.5523144 0.89105552 0.016518279910087585 0.9990622997283936 -0.04002073034644127 235.0 57.0 1.0 1.0
-0.9194724 -0.56354874 0.89360511 0.016518279910087585 0.9990622997283936 -0.04002073034644127 235.0 57.0 1.0 1.0
-0.9314152 -0.56132531 0.96294814 0.009502990171313286 0.9984951615333557 -0.0540098138153553 244.0 58.0 1.0 1.0
-0.92804027 -0.572613 0.96559733 0.009502990171313286 0.9984951615333557 -0.0540098138153553 244.0 58.0 1.0 1.0
-0.9305113 -0.56545782 1.0324816 0.010092711076140404 0.9992781281471252 -0.03662298247218132 250.0 59.0 1.0 1.0
-0.92454541 -0.57516295 1.0324785 0.010092711076140404 0.9992781281471252 -0.03662298247218132 253.0 59.0 1.0 1.0
-0.92262155 -0.56642991 1.1015861 0.01489261630922556 0.9989667534828186 -0.04293893650174141 253.0 60.0 1.0 1.0
-0.91664618 -0.57605225 1.101583 0.01489261630922556 0.9989667534828186 -0.04293893650174141 250.0 60.0 1.0 1.0
-0.91694629 -0.56959713 1.1817033 0.005612061824649572 0.9999185800552368 -0.011461795307695866 250.0 61.0 1.0 1.0
-0.92459381 -0.58784509 1.199423 0.005608126521110535 0.9992173910140991 -0.039157185703516006 255.0 61.0 1.0 1.0
-0.92518288 -0.58215058 1.2921728 0.03765597566962242 0.9946408271789551 -0.09628916531801224 255.0 62.0 1.0 1.0
-0.92121494 -0.59319729 1.2952241 0.03765597566962242 0.9946408271789551 -0.09628916531801224 255.0 62.0 1.0 1.0
-0.90993929 -0.58171242 1.3852378 0.016083959490060806 0.9944593906402588 -0.10388417541980743 255.0 63.0 1.0 1.0
-0.91409355 -0.59793234 1.4010099 0.016083959490060806 0.9944593906402588 -0.10388417541980743 255.0 63.0 1.0 1.0
-0.50982106 -0.13778424 -0.69414032 0.22172847390174866 0.022372150793671608 0.9748518466949463 255.0 0.0 1.0 1.0
-0.52465409 -0.14770117 -0.71643728 0.22172847390174866 0.022372150793671608 0.9748518466949463 255.0 0.0 1.0 1.0
-0.55769974 -0.15482408 -0.69990683 0.27913567423820496 0.10883559286594391 0.9540640115737915 255.0 1.0 1.0 1.0
-0.55115223 -0.15923738 -0.69374073 0.27913567423820496 0.10883559286594391 0.9540640115737915 250.0 1.0 1.0 1.0
-0.59484071 -0.1686247 -0.69236392 0.19487264752388 0.030146248638629913 0.9803651571273804 244.0 2.0 1.0 1.0
-0.59559476 -0.17559281 -0.69535136 0.22112882137298584 0.022108104079961777 0.9749939441680908 241.0 2.0 1.0 1.0
-0.64482254 -0.18622057 -0.69789839 0.19545115530490875 0.03183098882436752 0.9801967144012451 247.0 3.0 1.0 1.0
-0.64548987 -0.19375487 -0.70078558 0.19545115530490875 0.03183098882436752 0.9801967144012451 250.0 3.0 1.0 1.0
-0.681122 -0.19955719 -0.6877169 0.21858666837215424 0.06324730068445206 0.9737657308578491 247.0 4.0 1.0 1.0
-0.67899358 -0.20667417 -0.68771952 0.21858666837215424 0.06324730068445206 0.9737657308578491 244.0 4.0 1.0 1.0
-0.74237239 -0.22047757 -0.70059925 0.13888700306415558 0.050020426511764526 0.9890441298484802 250.0 5.0 1.0 1.0
-0.74002159 -0.22823484 -0.70060217 0.17718367278575897 0.0891176164150238 0.9801346659660339 253.0 5.0 1.0 1.0
-0.78401309 -0.23554383 -0.69261175 0.13884678483009338 0.05549577623605728 0.9887577295303345 247.0 6.0 1.0 1.0
-0.7844162 -0.24464519 -0.69519985 0.13884678483009338 0.05549577623605728 0.9887577295303345 250.0 6.0 1.0 1.0
-0.84031785 -0.25487676 -0.69574094 0.11444205790758133 0.02103070542216301 0.9932072758674622 255.0 7.0 1.0 1.0
-0.83162236 -0.26177609 -0.69077325 0.11444205790758133 0.02103070542216301 0.9932072758674622 255.0 7.0 1.0 1.0
-0.88770503 -0.27146757 -0.68951654 0.12469077110290527 -0.021204069256782532 0.9919690489768982 255.0 8.0 1.0 1.0
-0.8878721 -0.28171474 -0.69190651 0.12469077110290527 -0.021204069256782532 0.9919690489768982 255.0 8.0 1.0 1.0
-0.96003455 -0.29598686 -0.69985527 0.1305486261844635 -0.027525948360562325 0.9910597205162048 255.0 9.0 1.0 1.0
-0.9787578 -0.31301597 -0.71587318 0.1305486261844635 -0.027525948360562325 0.9910597205162048 255.0 9.0 1.0 1.0
-1.0207193 -0.31647012 -0.69794369 0.017280904576182365 0.38509106636047363 0.9227166771888733 255.0 10.0 1.0 1.0
-1.0173481 -0.32713684 -0.69794762 0.017280904576182365 0.38509106636047363 0.9227166771888733 255.0 10.0 1.0 1.0
-1.0262582 -0.32016742 -0.65793598 0.036383163183927536 0.9972494840621948 0.06457188725471497 255.0 11.0 1.0 1.0
-1.0358294 -0.3350921 -0.66629708 0.031252894550561905 0.9984987378120422 0.044983021914958954 255.0 11.0 1.0 1.0
-1.0204247 -0.320122 -0.61243981 0.014665983617305756 0.9993744492530823 -0.032179757952690125 255.0 12.0 1.0 1.0
-1.0236157 -0.33293268 -0.61642188 0.03094732202589512 0.9995138645172119 -0.0037741167470812798 255.0 12.0 1.0 1.0
-1.0126511 -0.31905714 -0.56865382 0.01466277614235878 0.9991559982299805 -0.03836791589856148 255.0 13.0 1.0 1.0
-1.0092536 -0.32963899 -0.5686577 0.01466277614235878 0.9991559982299805 -0.03836791589856148 255.0 13.0 1.0 1.0
-1.0168749 -0.32157239 -0.53333837 0.01228928193449974 0.9991756081581116 -0.03869319334626198 255.0 14.0 1.0 1.0
-1.0100521 -0.3310841 -0.5315519 0.01357619371265173 0.9991589188575745 -0.038692545145750046 255.0 14.0 1.0 1.0
-1.0025526 -0.31821093 -0.49016178 0.015547101385891438 0.9998545050621033 -0.007023386657238007 255.0 15.0 1.0 1.0
-1.0232694 -0.33661684 -0.50200176 0.009874274022877216 0.9999266266822815 -0.007023893296718597 255.0 15.0 1.0 1.0
-1.0117774 -0.55959624 -0.50186777 0.014077111147344112 0.9992590546607971 -0.03582414612174034 255.0 16.0 1.0 1.0
-1.0250102 -0.58101261 -0.5114342 0.010869982652366161 0.9995505809783936 -0.027937551960349083 255.0 16.0 1.0 1.0
-1.0141885 -0.55955642 -0.46578032 -9.180357301374897e-05 0.9990541338920593 -0.04348364099860191 255.0 17.0 1.0 1.0
-1.0276523 -0.58110213 -0.47474474 0.014934530481696129 0.9989426732063293 -0.043478790670633316 255.0 17.0 1.0 1.0
-1.0189738 -0.56058693 -0.43148777 0.014603701420128345 0.9993762373924255 -0.03215450048446655 255.0 18.0 1.0 1.0
-1.0065154 -0.56753731 -0.42870617 0.014938950538635254 0.9992383122444153 -0.03604821115732193 255.0 18.0 1.0 1.0
-1.032639 -0.56671101 -0.40150571 -0.005226162262260914 0.9986384510993958 -0.051904454827308655 255.0 19.0 1.0 1.0
-1.0233486 -0.57563192 -0.40021756 0.02286326140165329 0.9983909726142883 -0.051891591399908066 255.0 19.0 1.0 1.0
-1.0320517 -0.56522828 -0.3666023 0.02287757210433483 0.9995694756507874 -0.018368205055594444 255.0 20.0 1.0 1.0
-0.99943918 -0.5610432 -0.3570787 0.005166088230907917 0.9999720454216003 -0.0054000308737158775 255.0 20.0 1.0 1.0
-1.0102397 -0.55214512 -0.3257938 0.01445604208856821 0.9995148777961731 -0.027586545795202255 255.0 21.0 1.0 1.0
-1.0245465 -0.57397717 -0.33233872 0.01445604208856821 0.9995148777961731 -0.027586545795202255 255.0 21.0 1.0 1.0
-1.017902 -0.55519217 -0.29537746 0.00035016590845771134 0.9999681115150452 -0.00797484815120697 255.0 22.0 1.0 1.0
-1.0018841 -0.56014061 -0.29241535 0.01445208303630352 0.999241054058075 -0.036173414438962936 255.0 22.0 1.0 1.0
-1.0178314 -0.55424285 -0.26340854 0.007761616259813309 0.9982877373695374 -0.057976335287094116 255.0 23.0 1.0 1.0
-0.99835068 -0.5572601 -0.25986186 0.007761616259813309 0.9982877373695374 -0.057976335287094116 255.0 23.0 1.0 1.0
-0.99964935 -0.54367161 -0.22785643 0.013650457374751568 0.9838547706604004 -0.17844706773757935 255.0 24.0 1.0 1.0
-1.0178795 -0.56747532 -0.23336442 0.002738725859671831 0.9929377436637878 -0.11860477179288864 255.0 24.0 1.0 1.0
-1.0014218 -0.54374063 -0.1976002 -0.07469797879457474 0.9929876327514648 -0.09162835031747818 255.0 25.0 1.0 1.0
-0.98878717 -0.55035776 -0.19623482 -0.07469797879457474 0.9929876327514648 -0.09162835031747818 255.0 25.0 1.0 1.0
-1.0128208 -0.54925531 -0.16924165 -0.005104249808937311 0.9862952828407288 -0.1649109423160553 255.0 26.0 1.0 1.0
-0.9862628 -0.5482862 -0.16575167 -0.06984047591686249 0.9935092329978943 -0.08978746831417084 255.0 26.0 1.0 1.0
-1.0060142 -0.54511881 -0.13828138 -0.0051702046766877174 0.9990397095680237 -0.04350830614566803 255.0 27.0 1.0 1.0
-1.0106654 -0.56140399 -0.13972722 -0.0051702046766877174 0.9990397095680237 -0.04350830614566803 241.0 27.0 1.0 1.0
-1.0090915 -0.54611349 -0.10885697 0.014265347272157669 0.9958195090293884 0.09022177755832672 255.0 28.0 1.0 1.0
-0.98590964 -0.54698366 -0.10696722 0.014265347272157669 0.9958195090293884 0.09022177755832672 255.0 28.0 1.0 1.0
-1.0078014 -0.54519749 -0.07912448 0.02798081375658512 0.9926835894584656 0.11745842546224594 255.0 29.0 1.0 1.0
-0.98459101 -0.54603672 -0.077746123 0.02798081375658512 0.9926835894584656 0.11745842546224594 255.0 29.0 1.0 1.0
-0.99889451 -0.53993702 -0.049335357 0.02816561423242092 0.9992398619651794 -0.02695358172059059 255.0 30.0 1.0 1.0
-1.0036728 -0.5561738 -0.049861919 0.02816561423242092 0.9992398619651794 -0.02695358172059059 255.0 30.0 1.0 1.0
-0.99615771 -0.53846681 -0.020369582 0.019523341208696365 0.9992671012878418 -0.03292679414153099 255.0 31.0 1.0 1.0
-0.98696822 -0.54692405 -0.020300327 0.019523341208696365 0.9992671012878418 -0.03292679414153099 255.0 31.0 1.0 1.0
-0.9862107 -0.31908527 0.0080492953 0.03517035394906998 0.997397780418396 -0.06293477863073349 255.0 32.0 1.0 1.0
-0.99798721 -0.33447385 0.0081668962 0.017358407378196716 0.9990593791007996 -0.03973677381873131 255.0 32.0 1.0 1.0
-0.94776821 -0.30629084 0.033102449 0.02557850442826748 0.9991524815559387 -0.032248545438051224 255.0 33.0 1.0 1.0
-0.97862977 -0.32761568 0.03428841 0.02557850442826748 0.9991524815559387 -0.032248545438051224 255.0 33.0 1.0 1.0
-0.99611127 -0.32173261 0.061497219 0.025566555559635162 0.9986858367919922 -0.04441705718636513 255.0 34.0 1.0 1.0
-1.0040499 -0.33594126 0.062195398 0.025566555559635162 0.9986858367919922 -0.04441705718636513 255.0 34.0 1.0 1.0
-0.99050283 -0.31993085 0.087834284 0.045959219336509705 0.9956863522529602 -0.08059990406036377 255.0 35.0 1.0 1.0
-1.0059999 -0.33660364 0.089509495 0.014239206910133362 0.9966386556625366 -0.08067698776721954 255.0 35.0 1.0 1.0
-0.9768036 -0.31513873 0.11308993 0.028070693835616112 0.9993856549263 -0.020987309515476227 255.0 36.0 1.0 1.0
-0.96591032 -0.32282388 0.11221101 0.028070693835616112 0.9993856549263 -0.020987309515476227 255.0 36.0 1.0 1.0
-0.96627396 -0.31137905 0.13839577 0.02798641286790371 0.9963850378990173 -0.08020956069231033 255.0 37.0 1.0 1.0
-1.0043161 -0.33528131 0.14433058 0.02798641286790371 0.9963850378990173 -0.08020956069231033 255.0 37.0 1.0 1.0
-0.97778058 -0.31453243 0.16690899 0.014265836216509342 0.9985021352767944 -0.05281990021467209 255.0 38.0 1.0 1.0
-0.97818118 -0.32599691 0.16754648 0.014265836216509342 0.9985021352767944 -0.05281990021467209 255.0 38.0 1.0 1.0
-0.98101652 -0.3150171 0.19476344 0.020326556637883186 0.9994444847106934 -0.02641102485358715 255.0 39.0 1.0 1.0
-0.9776665 -0.32526702 0.19475968 0.020326556637883186 0.9994444847106934 -0.02641102485358715 255.0 39.0 1.0 1.0
-0.96110028 -0.30826163 0.21800812 0.02028661221265793 0.9974804520606995 -0.06797876954078674 255.0 40.0 1.0 1.0
-0.97637385 -0.32446879 0.22222571 0.02028661221265793 0.9974804520606995 -0.06797876954078674 255.0 40.0 1.0 1.0
-0.99259305 -0.31760997 0.253694 0.030087094753980637 0.9965341091156006 -0.07755457609891891 255.0 41.0 1.0 1.0
-0.94863605 -0.31452513 0.24328521 0.030087094753980637 0.9965341091156006 -0.07755457609891891 255.0 41.0 1.0 1.0
-0.97884518 -0.31246853 0.27858129 0.016866575926542282 0.9989967942237854 -0.04148338735103607 255.0 42.0 1.0 1.0
-0.97185707 -0.32148266 0.277531 0.016866575926542282 0.9989967942237854 -0.04148338735103607 255.0 42.0 1.0 1.0
-0.95715868 -0.30463648 0.30102435 0.016860300675034523 0.9986252784729004 -0.04963156580924988 255.0 43.0 1.0 1.0
-0.96119684 -0.31703702 0.3033171 0.016860300675034523 0.9986252784729004 -0.04963156580924988 255.0 43.0 1.0 1.0
-0.98209715 -0.31164208 0.33872125 0.020549586042761803 0.9979444742202759 -0.060700081288814545 255.0 44.0 1.0 1.0
-0.9715637 -0.31952831 0.33621913 0.020549586042761803 0.9979444742202759 -0.060700081288814545 255.0 44.0 1.0 1.0
-0.97339094 -0.30795646 0.36611429 0.02623068168759346 0.9959326386451721 -0.0861983373761177 255.0 45.0 1.0 1.0
-0.9558053 -0.31343293 0.36070946 0.02623068168759346 0.9959326386451721 -0.0861983373761177 255.0 45.0 1.0 1.0
-0.95340389 -0.3005468 0.38880762 0.020774802193045616 0.9964072704315186 -0.08210287243127823 255.0 46.0 1.0 1.0
-0.9785558 -0.31977156 0.40040451 0.026227647438645363 0.9958174228668213 -0.08751940727233887 255.0 46.0 1.0 1.0
-0.95381021 -0.29977188 0.42041111 0.020801503211259842 0.9976879954338074 -0.06469998508691788 255.0 47.0 1.0 1.0
-0.97165704 -0.31659135 0.42971119 0.020801503211259842 0.9976879954338074 -0.06469998508691788 255.0 47.0 1.0 1.0
-0.95854497 -0.52566886 0.49626327 0.013622397556900978 0.9961681365966797 -0.08639252930879593 255.0 48.0 1.0 1.0
-0.96886545 -0.54459649 0.50452787 0.02329884096980095 0.997466504573822 -0.06721285730600357 255.0 48.0 1.0 1.0
-0.96761751 -0.53197634 0.53864902 0.022692495957016945 0.9952730536460876 -0.09442729502916336 255.0 49.0 1.0 1.0
-0.95573437 -0.53854257 0.53513789 0.021075161173939705 0.9964638948440552 -0.08133627474308014 253.0 49.0 1.0 1.0
-0.95955753 -0.52908319 0.57311463 0.03803516551852226 0.9957131743431091 -0.0843130573630333 255.0 50.0 1.0 1.0
-0.95088333 -0.53735131 0.57125723 0.02819417417049408 0.9955468773841858 -0.08995163440704346 253.0 50.0 1.0 1.0
-0.94416583 -0.52232623 0.60403532 0.03083874098956585 0.9950730800628662 -0.09422583878040314 238.0 51.0 1.0 1.0
-0.95382839 -0.54078645 0.61380309 0.03083874098956585 0.9950730800628662 -0.09422583878040314 250.0 51.0 1.0 1.0
-0.94283295 -0.52332163 0.64512563 0.03374664857983589 0.9971963763237 -0.06678704917430878 250.0 52.0 1.0 1.0
-0.93133926 -0.52976412 0.64101458 0.03374664857983589 0.9971963763237 -0.06678704917430878 232.0 52.0 1.0 1.0
-0.93084294 -0.51901716 0.68065965 0.023563984781503677 0.995311439037323 -0.0938078910112381 238.0 53.0 1.0 1.0
-0.93414134 -0.53374767 0.68711668 0.05732601881027222 0.9939506649971008 -0.09367965161800385 241.0 53.0 1.0 1.0
-0.93750262 -0.52532208 0.73253208 0.03326062485575676 0.9965766072273254 -0.07568968087434769 247.0 54.0 1.0 1.0
-0.94628447 -0.54333317 0.74379575 0.042812224477529526 0.9962140321731567 -0.07566214352846146 247.0 54.0 1.0 1.0
-0.93902963 -0.52877921 0.78379816 0.029554232954978943 0.9984397292137146 -0.04737650230526924 250.0 55.0 1.0 1.0
-0.92784321 -0.53534245 0.77908868 0.029554232954978943 0.9984397292137146 -0.04737650230526924 241.0 55.0 1.0 1.0
-0.92691654 -0.52517134 0.82681674 0.023571079596877098 0.9991322755813599 -0.03433670103549957 235.0 56.0 1.0 1.0
-0.9213714 -0.53484201 0.82681364 0.023571079596877098 0.9991322755813599 -0.03433670103549957 232.0 56.0 1.0 1.0
-0.92867005 -0.529827 0.88596028 0.02212885580956936 0.999062180519104 -0.03721543401479721 244.0 57.0 1.0 1.0
-0.92307663 -0.53951526 0.88595718 0.02212885580956936 0.999062180519104 -0.03721543401479721 235.0 57.0 1.0 1.0
-0.92996454 -0.53424603 0.94969702 0.013759470544755459 0.998898983001709 -0.044850774109363556 247.0 58.0 1.0 1.0
-0.92432505 -0.54394746 0.94969386 0.013759470544755459 0.998898983001709 -0.044850774109363556 244.0 58.0 1.0 1.0
-0.92957276 -0.53857982 1.0187277 0.006646322552114725 0.9993884563446045 -0.03432922810316086 253.0 59.0 1.0 1.0
-0.93137461 -0.55272138 1.0269829 0.010094668716192245 0.9994720220565796 -0.03088429942727089 250.0 59.0 1.0 1.0
-0.9149071 -0.53565955 1.078769 0.023865090683102608 0.9985402226448059 -0.04845457151532173 247.0 60.0 1.0 1.0
-0.92367804 -0.55385447 1.0958863 0.013784483075141907 0.9988851547241211 -0.04514925181865692 253.0 60.0 1.0 1.0
-0.92864966 -0.55027866 1.1817133 0.02441723272204399 0.9991843700408936 -0.03216104954481125 255.0 61.0 1.0 1.0
-0.91131473 -0.55296749 1.1669412 0.005612061824649572 0.9999185800552368 -0.011461795307695866 253.0 61.0 1.0 1.0
-0.91057599 -0.54669917 1.2555305 0.010162658989429474 0.993885338306427 -0.10994840413331985 255.0 62.0 1.0 1.0
-0.91140866 -0.56025541 1.2646906 0.03765597566962242 0.9946408271789551 -0.09628916531801224 255.0 62.0 1.0 1.0
-0.90930319 -0.55485141 1.3663175 0.016641290858387947 0.9942677617073059 -0.10561598092317581 255.0 63.0 1.0 1.0
-0.91179162 -0.56954682 1.3789346 0.018000658601522446 0.9945253729820251 -0.10293325036764145 255.0 63.0 1.0 1.0
-0.51494312 -0.12766938 -0.6973207 0.2738778293132782 0.022065993398427963 0.9615112543106079 255.0 0.0 1.0 1.0
-0.51357663 -0.1330502 -0.69732273 0.2738778293132782 0.022065993398427963 0.9615112543106079 255.0 0.0 1.0 1.0
-0.54354239 -0.13871209 -0.67831308 0.27913567423820496 0.10883559286594391 0.9540640115737915 244.0 1.0 1.0 1.0
-0.55436587 -0.14766973 -0.69373566 0.27913567423820496 0.10883559286594391 0.9540640115737915 247.0 1.0 1.0 1.0
-0.59308875 -0.15479536 -0.68638808 0.19487264752388 0.030146248638629913 0.9803651571273804 244.0 2.0 1.0 1.0
-0.59657198 -0.16239183 -0.69236064 0.19487264752388 0.030146248638629913 0.9803651571273804 250.0 2.0 1.0 1.0
-0.64322507 -0.17125943 -0.69212288 0.21868067979812622 0.05606407672166824 0.9741846323013306 247.0 3.0 1.0 1.0
-0.64673549 -0.17946301 -0.69789463 0.19545115530490875 0.03183098882436752 0.9801967144012451 253.0 3.0 1.0 1.0
-0.68237966 -0.18450932 -0.68492514 0.21858666837215424 0.06324730068445206 0.9737657308578491 244.0 4.0 1.0 1.0
-0.68040872 -0.19164068 -0.68492782 0.21858666837215424 0.06324730068445206 0.9737657308578491 241.0 4.0 1.0 1.0
-0.72681153 -0.19940086 -0.68179697 0.1797412484884262 0.04968734830617905 0.982458233833313 241.0 5.0 1.0 1.0
-0.73893696 -0.2110679 -0.6952247 0.13888700306415558 0.050020426511764526 0.9890441298484802 255.0 5.0 1.0 1.0
-0.77700907 -0.21581514 -0.68226355 0.15481923520565033 0.07175692915916443 0.9853333830833435 250.0 6.0 1.0 1.0
-0.79229963 -0.22902153 -0.69777685 0.15481923520565033 0.07175692915916443 0.9853333830833435 255.0 6.0 1.0 1.0
-0.830383 -0.23299913 -0.68330508 0.1579493284225464 0.022730205208063126 0.987185537815094 250.0 7.0 1.0 1.0
-0.85196459 -0.24870324 -0.70319176 0.1579493284225464 0.022730205208063126 0.987185537815094 255.0 7.0 1.0 1.0
-0.89937264 -0.25457537 -0.69428009 0.11382444947957993 -0.0101833650842309 0.9934487342834473 255.0 8.0 1.0 1.0
-0.87817979 -0.25853539 -0.67996466 0.11382444947957993 -0.0101833650842309 0.9934487342834473 255.0 8.0 1.0 1.0
-0.95971209 -0.27402422 -0.69526964 0.09776535630226135 0.20888742804527283 0.9730405807495117 255.0 9.0 1.0 1.0
-0.96307963 -0.28592265 -0.69984865 0.09993259608745575 -0.027624573558568954 0.9946106672286987 255.0 9.0 1.0 1.0
-1.0206866 -0.29318506 -0.69355565 0.017280904576182365 0.38509106636047363 0.9227166771888733 255.0 10.0 1.0 1.0
-1.0303921 -0.30768538 -0.70231348 0.017280904576182365 0.38509106636047363 0.9227166771888733 255.0 10.0 1.0 1.0
-1.0261837 -0.29671979 -0.65374631 0.036383163183927536 0.9972494840621948 0.06457188725471497 255.0 11.0 1.0 1.0
-1.0099524 -0.30351785 -0.64539325 0.036383163183927536 0.9972494840621948 0.06457188725471497 255.0 11.0 1.0 1.0
-1.0035774 -0.29190674 -0.59850562 0.014665983617305756 0.9993744492530823 -0.032179757952690125 255.0 12.0 1.0 1.0
-1.0237186 -0.30942389 -0.61243266 0.014665983617305756 0.9993744492530823 -0.032179757952690125 255.0 12.0 1.0 1.0
-1.012341 -0.29581156 -0.56486315 0.01902146264910698 0.9984944462776184 -0.05144771188497543 255.0 13.0 1.0 1.0
-0.9923203 -0.3012706 -0.55541801 0.01902146264910698 0.9984944462776184 -0.05144771188497543 255.0 13.0 1.0 1.0
-1.0096549 -0.29618788 -0.52616602 0.0155338104814291 0.9989996552467346 -0.04193306714296341 255.0 14.0 1.0 1.0
-1.0133404 -0.30882517 -0.52975059 0.0155338104814291 0.9989996552467346 -0.04193306714296341 255.0 14.0 1.0 1.0
-0.99160695 -0.29203403 -0.48169684 0.013098351657390594 0.9999037384986877 -0.004574216902256012 255.0 15.0 1.0 1.0
-1.0092928 -0.30876023 -0.49184561 0.015547101385891438 0.9998545050621033 -0.007023386657238007 255.0 15.0 1.0 1.0
-1.0362593 -0.54512721 -0.50823176 0.0069481125101447105 0.9997431039810181 -0.021569853648543358 255.0 16.0 1.0 1.0
-1.0111213 -0.54549074 -0.49867254 0.0069481125101447105 0.9997431039810181 -0.021569853648543358 255.0 16.0 1.0 1.0
-1.0059673 -0.52785653 -0.45680851 0.014592145569622517 0.9985855221748352 -0.051127977669239044 255.0 17.0 1.0 1.0
-1.0330588 -0.55594492 -0.47174647 0.014592145569622517 0.9985855221748352 -0.051127977669239044 255.0 17.0 1.0 1.0
-1.0205199 -0.53391767 -0.42729914 0.02403673343360424 0.9984084963798523 -0.05101771280169487 255.0 18.0 1.0 1.0
-1.0115687 -0.54279661 -0.42591017 0.014603701420128345 0.9993762373924255 -0.03215450048446655 255.0 18.0 1.0 1.0
-1.0174286 -0.53095567 -0.39116171 -0.009598764590919018 0.9997851252555847 -0.01837216690182686 255.0 19.0 1.0 1.0
-1.0318379 -0.55229676 -0.39891469 0.024062898010015488 0.999495267868042 -0.02074088715016842 255.0 19.0 1.0 1.0
-1.0064042 -0.52409548 -0.35349175 -0.009598764590919018 0.9997851252555847 -0.01837216690182686 255.0 20.0 1.0 1.0
-1.0311737 -0.55079561 -0.36421281 0.02287757210433483 0.9995694756507874 -0.018368205055594444 255.0 20.0 1.0 1.0
-1.0010875 -0.52022719 -0.31924155 -0.0028241758700460196 0.9996153116226196 -0.02758931927382946 255.0 21.0 1.0 1.0
-1.0091693 -0.5379191 -0.32360581 0.01445604208856821 0.9995148777961731 -0.027586545795202255 255.0 21.0 1.0 1.0
-1.0120972 -0.52483976 -0.29042393 0.007774333469569683 0.9999234080314636 -0.00962392520159483 255.0 22.0 1.0 1.0
-1.0270768 -0.54632747 -0.29635829 0.007774333469569683 0.9999234080314636 -0.00962392520159483 255.0 22.0 1.0 1.0
-0.9911114 -0.51308686 -0.25363505 0.007761616259813309 0.9982877373695374 -0.057976335287094116 255.0 23.0 1.0 1.0
-1.0097963 -0.5362398 -0.25985089 0.007761616259813309 0.9982877373695374 -0.057976335287094116 255.0 23.0 1.0 1.0
-1.0108098 -0.52262652 -0.22784548 -0.007103240117430687 0.9935179352760315 -0.11345324665307999 255.0 24.0 1.0 1.0
-1.0052822 -0.53317785 -0.22784895 0.013650457374751568 0.9838547706604004 -0.17844706773757935 255.0 24.0 1.0 1.0
-0.99857557 -0.51542664 -0.19485186 0.0005770815187133849 0.9934977889060974 -0.11384925991296768 255.0 25.0 1.0 1.0
-1.0035722 -0.53138375 -0.19690834 0.002738725859671831 0.9929377436637878 -0.11860477179288864 255.0 25.0 1.0 1.0
-1.0100254 -0.52067864 -0.16690178 -0.005104249808937311 0.9862952828407288 -0.1649109423160553 255.0 26.0 1.0 1.0
-0.99752194 -0.52752095 -0.16574088 -0.005104249808937311 0.9862952828407288 -0.1649109423160553 255.0 26.0 1.0 1.0
-1.0101424 -0.52030277 -0.13730884 0.014275217428803444 0.9965084791183472 -0.08226269483566284 255.0 27.0 1.0 1.0
-1.0081505 -0.53270215 -0.13779306 -0.0051702046766877174 0.9990397095680237 -0.04350830614566803 255.0 27.0 1.0 1.0
-1.0025957 -0.5157606 -0.10695299 0.014265347272157669 0.9958195090293884 0.09022177755832672 255.0 28.0 1.0 1.0
-0.99361944 -0.5243668 -0.10657784 0.014265347272157669 0.9958195090293884 0.09022177755832672 255.0 28.0 1.0 1.0
-1.0083444 -0.51850593 -0.078284517 0.02798081375658512 0.9926835894584656 0.11745842546224594 255.0 29.0 1.0 1.0
-1.002861 -0.52903098 -0.078287981 0.02798081375658512 0.9926835894584656 0.11745842546224594 255.0 29.0 1.0 1.0
-0.99931186 -0.51342893 -0.048801426 0.01953301951289177 0.9997624158859253 -0.009673026390373707 255.0 30.0 1.0 1.0
-1.0150921 -0.53504169 -0.049850907 0.01953301951289177 0.9997624158859253 -0.009673026390373707 255.0 30.0 1.0 1.0
-0.99297893 -0.51018375 -0.020068305 0.019523341208696365 0.9992671012878418 -0.03292679414153099 255.0 31.0 1.0 1.0
-0.98404586 -0.51868308 -0.019999113 0.019523341208696365 0.9992671012878418 -0.03292679414153099 255.0 31.0 1.0 1.0
-0.9811759 -0.29491675 0.0079687396 0.03517035394906998 0.997397780418396 -0.06293477863073349 255.0 32.0 1.0 1.0
-0.97039902 -0.3027865 0.0079042008 0.03517035394906998 0.997397780418396 -0.06293477863073349 255.0 32.0 1.0 1.0
-0.94247842 -0.28293589 0.032715894 0.02557850442826748 0.9991524815559387 -0.032248545438051224 255.0 33.0 1.0 1.0
-0.98145002 -0.30586866 0.034166753 0.02557850442826748 0.9991524815559387 -0.032248545438051224 255.0 33.0 1.0 1.0
-1.0140951 -0.30425283 0.062210172 0.034747619181871414 0.9974218606948853 -0.06278767436742783 255.0 34.0 1.0 1.0
-0.9994179 -0.31128708 0.061504163 0.025566555559635162 0.9986858367919922 -0.04441705718636513 255.0 34.0 1.0 1.0
-0.98170459 -0.29454452 0.086501546 0.0339798629283905 0.9984311461448669 -0.044503919780254364 255.0 35.0 1.0 1.0
-0.98998517 -0.30835867 0.087505326 0.0339798629283905 0.9984311461448669 -0.044503919780254364 255.0 35.0 1.0 1.0
-0.96794403 -0.29005736 0.11134984 0.028070693835616112 0.9993856549263 -0.020987309515476227 255.0 36.0 1.0 1.0
-1.0066172 -0.31316409 0.11616019 0.028070693835616112 0.9993856549263 -0.020987309515476227 255.0 36.0 1.0 1.0
-0.99155694 -0.2967664 0.1411058 0.04443937912583351 0.9967723488807678 -0.06685811281204224 255.0 37.0 1.0 1.0
-0.98461241 -0.3059513 0.14056209 0.02798641286790371 0.9963850378990173 -0.08020956069231033 255.0 37.0 1.0 1.0
-0.95387733 -0.28495488 0.16178924 0.023826370015740395 0.9997045397758484 -0.004823571536689997 255.0 38.0 1.0 1.0
-0.98101175 -0.30427942 0.16691576 0.023826370015740395 0.9997045397758484 -0.004823571536689997 255.0 38.0 1.0 1.0
-0.97232062 -0.28992039 0.19180319 0.020326556637883186 0.9994444847106934 -0.02641102485358715 255.0 39.0 1.0 1.0
-0.99551612 -0.30821759 0.1969983 0.020326556637883186 0.9994444847106934 -0.02641102485358715 255.0 39.0 1.0 1.0
-0.97857493 -0.29142374 0.22055139 0.010299895890057087 0.998792290687561 -0.04804137721657753 255.0 40.0 1.0 1.0
-0.96800154 -0.29933867 0.21885903 0.02028661221265793 0.9974804520606995 -0.06797876954078674 255.0 40.0 1.0 1.0
-0.9543069 -0.28348193 0.24235308 0.026745811104774475 0.9973592758178711 -0.06752019375562668 255.0 41.0 1.0 1.0
-0.97728568 -0.30147314 0.2489711 0.026745811104774475 0.9973592758178711 -0.06752019375562668 255.0 41.0 1.0 1.0
-0.97775859 -0.28971618 0.27649859 0.016866575926542282 0.9989967942237854 -0.04148338735103607 255.0 42.0 1.0 1.0
-0.97836387 -0.30106875 0.27754146 0.016866575926542282 0.9989967942237854 -0.04148338735103607 255.0 42.0 1.0 1.0
-0.97433984 -0.28778976 0.30447942 0.016860300675034523 0.9986252784729004 -0.04963156580924988 255.0 43.0 1.0 1.0
-0.9676125 -0.29684734 0.30332744 0.016860300675034523 0.9986252784729004 -0.04963156580924988 255.0 43.0 1.0 1.0
-0.95194292 -0.28028271 0.32623935 0.020549586042761803 0.9979444742202759 -0.060700081288814545 255.0 44.0 1.0 1.0
-0.97076118 -0.29689813 0.33373111 0.020549586042761803 0.9979444742202759 -0.060700081288814545 255.0 44.0 1.0 1.0
-0.98683876 -0.28963357 0.36882544 0.0431976355612278 0.9953454732894897 -0.08614751696586609 255.0 45.0 1.0 1.0
-0.98015356 -0.29884702 0.36747131 0.02623068168759346 0.9959326386451721 -0.0861983373761177 255.0 45.0 1.0 1.0
-0.94874072 -0.27738503 0.38446751 0.01776176504790783 0.9964652061462402 -0.08210764080286026 255.0 46.0 1.0 1.0
-0.96362215 -0.292716 0.39171442 0.020774802193045616 0.9964072704315186 -0.08210287243127823 255.0 46.0 1.0 1.0
-0.9598645 -0.2797406 0.42042133 0.017374172806739807 0.9949323534965515 -0.09903394430875778 255.0 47.0 1.0 1.0
-0.95335722 -0.28870147 0.41886696 0.036358654499053955 0.9961165189743042 -0.08018799126148224 255.0 47.0 1.0 1.0
-0.95641088 -0.49875116 0.48965919 0.013620952144265175 0.9960623383522034 -0.08760325610637665 255.0 48.0 1.0 1.0
-0.97361988 -0.52075946 0.50123119 0.013620952144265175 0.9960623383522034 -0.08760325610637665 255.0 48.0 1.0 1.0
-0.95941675 -0.50160879 0.52813566 0.013622397556900978 0.9961681365966797 -0.08639252930879593 255.0 49.0 1.0 1.0
-0.94777942 -0.50822288 0.52462441 0.028102733194828033 0.9970088601112366 -0.07199661433696747 247.0 49.0 1.0 1.0
-0.94530135 -0.49570996 0.55829167 0.046917375177145004 0.992958128452301 -0.10877882689237595 244.0 50.0 1.0 1.0
-0.96503353 -0.51900792 0.57312179 0.03803516551852226 0.9957131743431091 -0.0843130573630333 255.0 50.0 1.0 1.0
-0.95796943 -0.5040732 0.60599977 0.03746441751718521 0.9959864616394043 -0.08128546178340912 247.0 51.0 1.0 1.0
-0.94035751 -0.50743961 0.59817952 0.03083874098956585 0.9950730800628662 -0.09422583878040314 244.0 51.0 1.0 1.0
-0.95053351 -0.50186783 0.64308184 0.03374664857983589 0.9971963763237 -0.06678704917430878 250.0 52.0 1.0 1.0
-0.94221228 -0.51015294 0.64102465 0.03374664857983589 0.9971963763237 -0.06678704917430878 241.0 52.0 1.0 1.0
-0.94744587 -0.50257856 0.68497658 0.033713191747665405 0.9962076544761658 -0.08021106570959091 253.0 53.0 1.0 1.0
-0.93917489 -0.51085442 0.68281996 0.03317773714661598 0.9940930008888245 -0.10333564132452011 241.0 53.0 1.0 1.0
-0.93953204 -0.5009169 0.72578198 0.027371101081371307 0.9975795149803162 -0.06391986459493637 244.0 54.0 1.0 1.0
-0.94003934 -0.51389199 0.73028558 0.03326062485575676 0.9965766072273254 -0.07568968087434769 244.0 54.0 1.0 1.0
-0.92992282 -0.49831021 0.76733577 0.02739301323890686 0.9983781576156616 -0.04990642890334129 244.0 55.0 1.0 1.0
-0.9388321 -0.51580316 0.77909869 0.02955370955169201 0.9984220266342163 -0.04774913564324379 247.0 55.0 1.0 1.0
-0.92934942 -0.50115383 0.8194679 0.029685139656066895 0.9986643195152283 -0.04229242727160454 241.0 56.0 1.0 1.0
-0.92129081 -0.50932193 0.81701183 0.029685139656066895 0.9986643195152283 -0.04229242727160454 229.0 56.0 1.0 1.0
-0.90977567 -0.49410057 0.85789067 0.018877802416682243 0.9995010495185852 -0.025323813781142235 229.0 57.0 1.0 1.0
-0.92339087 -0.5140813 0.87575638 0.020938601344823837 0.9994056820869446 -0.027383998036384583 238.0 57.0 1.0 1.0
-0.93042094 -0.50891346 0.93909782 0.018997913226485252 0.9992383122444153 -0.0340871624648571 244.0 58.0 1.0 1.0
-0.92243481 -0.51715708 0.93644243 0.013759409077465534 0.9988945722579956 -0.04495019465684891 241.0 58.0 1.0 1.0
-0.92538154 -0.51058996 1.0022206 0.02023322321474552 0.9991372227668762 -0.036267973482608795 250.0 59.0 1.0 1.0
-0.91746426 -0.51881588 0.99946463 0.021647484973073006 0.9991331100463867 -0.03556064888834953 241.0 59.0 1.0 1.0
-0.92345387 -0.51502502 1.0759254 0.017863495275378227 0.9989105463027954 -0.04311107471585274 255.0 60.0 1.0 1.0
-0.92044991 -0.52605087 1.0787758 0.023865090683102608 0.9985402226448059 -0.04845457151532173 247.0 60.0 1.0 1.0
-0.90941572 -0.5134756 1.1433233 0.012449488043785095 0.998948872089386 -0.04411545395851135 247.0 61.0 1.0 1.0
-0.91800272 -0.53106821 1.1610434 0.02441723272204399 0.9991843700408936 -0.03216104954481125 255.0 61.0 1.0 1.0
-0.91731751 -0.52495265 1.2494315 0.006782678421586752 0.9973212480545044 -0.07283056527376175 255.0 62.0 1.0 1.0
-0.91623318 -0.53713477 1.2555373 0.006782678421586752 0.9973212480545044 -0.07283056527376175 255.0 62.0 1.0 1.0
-0.91219693 -0.53074872 1.3537071 0.03861355409026146 0.9992210865020752 -0.00813764426857233 255.0 63.0 1.0 1.0
-0.91715693 -0.54655856 1.3694793 0.03861355409026146 0.9992210865020752 -0.00813764426857233 255.0 63.0 1.0 1.0
-0.51986408 -0.1173998 -0.70050108 0.2738778293132782 0.022065993398427963 0.9615112543106079 255.0 0.0 1.0 1.0
-0.52331454 -0.12394796 -0.706873 0.2738778293132782 0.022065993398427963 0.9615112543106079 255.0 0.0 1.0 1.0
-0.55625093 -0.12962 -0.69064444 0.2543221712112427 0.10961399972438812 0.960887610912323 247.0 1.0 1.0 1.0
-0.54743779 -0.1336216 -0.6813944 0.27913567423820496 0.10883559286594391 0.9540640115737915 244.0 1.0 1.0 1.0
-0.59878969 -0.14296882 -0.68936759 0.19487264752388 0.030146248638629913 0.9803651571273804 250.0 2.0 1.0 1.0
-0.59984159 -0.14987214 -0.69235504 0.19487264752388 0.030146248638629913 0.9803651571273804 241.0 2.0 1.0 1.0
-0.64936244 -0.1584174 -0.6950013 0.2376367747783661 0.055808838456869125 0.9697495698928833 247.0 3.0 1.0 1.0
-0.64229614 -0.16383481 -0.68923461 0.2376367747783661 0.055808838456869125 0.9697495698928833 241.0 3.0 1.0 1.0
-0.6944539 -0.17226155 -0.69327343 0.17991578578948975 0.02303754910826683 0.9834122061729431 253.0 4.0 1.0 1.0
-0.6814931 -0.17663845 -0.68213618 0.17991578578948975 0.02303754910826683 0.9834122061729431 241.0 4.0 1.0 1.0
-0.74232811 -0.18704288 -0.69252944 0.13723744451999664 0.006116493139415979 0.9905191659927368 253.0 5.0 1.0 1.0
-0.72885776 -0.19178419 -0.68179262 0.1797412484884262 0.04968734830617905 0.982458233833313 241.0 5.0 1.0 1.0
-0.79318839 -0.2025256 -0.69259566 0.13688436150550842 0.07194899767637253 0.9879707098007202 255.0 6.0 1.0 1.0
-0.79397225 -0.21160206 -0.69518375 0.15481923520565033 0.07175692915916443 0.9853333830833435 255.0 6.0 1.0 1.0
-0.84418398 -0.21791711 -0.69075269 0.1579493284225464 0.022730205208063126 0.987185537815094 255.0 7.0 1.0 1.0
-0.82974923 -0.22348054 -0.68081433 0.1579493284225464 0.022730205208063126 0.987185537815094 253.0 7.0 1.0 1.0
-0.89829373 -0.2340751 -0.68949777 0.14058293402194977 -0.01014818623661995 0.9900168776512146 255.0 8.0 1.0 1.0
-0.88649857 -0.24093919 -0.68234193 0.14058293402194977 -0.01014818623661995 0.9900168776512146 255.0 8.0 1.0 1.0
-0.96524 -0.25387523 -0.69525939 0.09776535630226135 0.20888742804527283 0.9730405807495117 255.0 9.0 1.0 1.0
-0.96252716 -0.2639645 -0.69526315 0.09776535630226135 0.20888742804527283 0.9730405807495117 255.0 9.0 1.0 1.0
-1.0363127 -0.27432519 -0.70010996 0.017280904576182365 0.38509106636047363 0.9227166771888733 255.0 10.0 1.0 1.0
-1.0107884 -0.27892327 -0.68479496 0.017280904576182365 0.38509106636047363 0.9227166771888733 255.0 10.0 1.0 1.0
-1.0288759 -0.27429461 -0.65164608 0.036383163183927536 0.9972494840621948 0.06457188725471497 255.0 11.0 1.0 1.0
-1.0325192 -0.28687528 -0.65582842 0.036383163183927536 0.9972494840621948 0.06457188725471497 255.0 11.0 1.0 1.0
-1.012821 -0.27173391 -0.60048378 0.009061465971171856 0.9998434782028198 -0.01519679743796587 255.0 12.0 1.0 1.0
-1.023288 -0.28605801 -0.60844362 0.009061465971171856 0.9998434782028198 -0.01519679743796587 255.0 12.0 1.0 1.0
-1.0115043 -0.27271965 -0.56107277 0.01902146264910698 0.9984944462776184 -0.05144771188497543 255.0 13.0 1.0 1.0
-1.0119863 -0.28424594 -0.56296647 0.01902146264910698 0.9984944462776184 -0.05144771188497543 255.0 13.0 1.0 1.0
-1.0052757 -0.27218315 -0.52078438 0.021156318485736847 0.9991153478622437 -0.03634302318096161 255.0 14.0 1.0 1.0
-1.0126979 -0.28560355 -0.52615911 0.0155338104814291 0.9989996552467346 -0.04193306714296341 255.0 14.0 1.0 1.0
-1.0184909 -0.27691945 -0.49183086 0.01906319335103035 0.9997985363006592 -0.0062736161053180695 255.0 15.0 1.0 1.0
-0.99809504 -0.28262648 -0.48338082 0.01906319335103035 0.9997985363006592 -0.0062736161053180695 255.0 15.0 1.0 1.0
-1.0211909 -0.51019567 -0.49547049 0.015219043008983135 0.9996395111083984 -0.02211727388203144 255.0 16.0 1.0 1.0
-1.0288497 -0.5275535 -0.50184906 0.014669684693217278 0.9996597766876221 -0.0215680543333292 255.0 16.0 1.0 1.0
-1.0234402 -0.5099932 -0.45978436 0.015202857553958893 0.9985764622688293 -0.051127515733242035 255.0 17.0 1.0 1.0
-1.0213468 -0.52236795 -0.4612813 0.015202857553958893 0.9985764622688293 -0.051127515733242035 255.0 17.0 1.0 1.0
-1.0146836 -0.50409436 -0.42032596 -0.0064448146149516106 0.9990847706794739 -0.04228649660944939 255.0 18.0 1.0 1.0
-1.0227104 -0.52150255 -0.42589918 -0.0064448146149516106 0.9990847706794739 -0.04228649660944939 255.0 18.0 1.0 1.0
-1.018145 -0.50449765 -0.38727602 -0.015218385495245457 0.999596357345581 -0.023990128189325333 255.0 19.0 1.0 1.0
-1.0161803 -0.51684362 -0.38857108 -0.015218385495245457 0.999596357345581 -0.023990128189325333 255.0 19.0 1.0 1.0
-1.0137318 -0.50122052 -0.35229003 -0.009594717994332314 0.9993636608123779 -0.03435362130403519 255.0 20.0 1.0 1.0
-1.0084279 -0.51180339 -0.35229352 -0.009598764590919018 0.9997851252555847 -0.01837216690182686 255.0 20.0 1.0 1.0
-1.0048553 -0.49575093 -0.3170504 -0.0028241758700460196 0.9996153116226196 -0.02758931927382946 255.0 21.0 1.0 1.0
-1.0167755 -0.51493675 -0.32250467 -0.0028241758700460196 0.9996153116226196 -0.02758931927382946 255.0 21.0 1.0 1.0
-1.0228615 -0.50353807 -0.29041293 0.007774333469569683 0.9999234080314636 -0.00962392520159483 255.0 22.0 1.0 1.0
-0.99677801 -0.50372535 -0.28448585 0.007774333469569683 0.9999234080314636 -0.00962392520159483 255.0 22.0 1.0 1.0
-0.99113226 -0.48706609 -0.25096199 0.0027556447312235832 0.9990718960762024 -0.042985670268535614 255.0 23.0 1.0 1.0
-0.99990654 -0.50444126 -0.25451523 0.007761616259813309 0.9982877373695374 -0.057976335287094116 255.0 23.0 1.0 1.0
-1.0180063 -0.49962446 -0.22704822 0.002738725859671831 0.9929377436637878 -0.11860477179288864 255.0 24.0 1.0 1.0
-1.0092171 -0.50848699 -0.22626546 -0.007103240117430687 0.9935179352760315 -0.11345324665307999 255.0 24.0 1.0 1.0
-1.0020663 -0.49094215 -0.19347243 0.03702964633703232 0.9907357096672058 -0.13065801560878754 255.0 25.0 1.0 1.0
-1.0179948 -0.5120303 -0.19758175 0.03924420475959778 0.9895884990692139 -0.1384720355272293 255.0 25.0 1.0 1.0
-1.0135919 -0.4959425 -0.16572654 -0.019142748787999153 0.993157148361206 -0.11520583927631378 255.0 26.0 1.0 1.0
-1.0083438 -0.50652391 -0.16573004 0.038682643324136734 0.9926947355270386 -0.11428359895944595 255.0 26.0 1.0 1.0
-0.99227089 -0.48508862 -0.13345224 0.016815969720482826 0.9964691400527954 -0.08225945383310318 226.0 27.0 1.0 1.0
-1.0084314 -0.50613701 -0.13633996 0.014275217428803444 0.9965084791183472 -0.08226269483566284 255.0 27.0 1.0 1.0
-0.97738743 -0.47718629 -0.10315677 0.018719330430030823 0.995746374130249 0.09021515399217606 247.0 28.0 1.0 1.0
-0.9723379 -0.48738995 -0.10316014 0.014265347272157669 0.9958195090293884 0.09022177755832672 250.0 28.0 1.0 1.0
-1.0369043 -0.50603628 -0.07965485 0.018719330430030823 0.995746374130249 0.09021515399217606 255.0 29.0 1.0 1.0
-0.99587464 -0.49898267 -0.076895759 0.014265347272157669 0.9958195090293884 0.09022177755832672 255.0 29.0 1.0 1.0
-1.0026532 -0.48889387 -0.048442025 -0.018871046602725983 0.9997751712799072 -0.009673151187598705 255.0 30.0 1.0 1.0
-1.0010532 -0.50115061 -0.048619792 0.01953301951289177 0.9997624158859253 -0.009673026390373707 255.0 30.0 1.0 1.0
-1.0070317 -0.49103871 -0.020130102 0.01652197167277336 0.9997937679290771 -0.011797798797488213 255.0 31.0 1.0 1.0
-1.008988 -0.50513333 -0.020278703 0.008961321786046028 0.9998902082443237 -0.011798936873674393 255.0 31.0 1.0 1.0
-0.9871279 -0.27431294 0.0079792142 0.023248804733157158 0.998848021030426 -0.04197734221816063 255.0 32.0 1.0 1.0
-0.99957258 -0.28907439 0.0080971802 0.04421753063797951 0.9970390796661377 -0.06291215121746063 255.0 32.0 1.0 1.0
-0.97130096 -0.26955941 0.033519603 0.023257210850715637 0.9992091059684753 -0.03225037083029747 255.0 33.0 1.0 1.0
-1.0106757 -0.29191315 0.03497088 0.023257210850715637 0.9992091059684753 -0.03225037083029747 255.0 33.0 1.0 1.0
-0.98945135 -0.27442023 0.060348216 0.05155409127473831 0.9966973662376404 -0.06274206936359406 255.0 34.0 1.0 1.0
-0.97885221 -0.28254622 0.059876237 0.05155409127473831 0.9966973662376404 -0.06274206936359406 255.0 34.0 1.0 1.0
-0.96844327 -0.26860338 0.084832475 0.0339798629283905 0.9984311461448669 -0.044503919780254364 255.0 35.0 1.0 1.0
-1.0000451 -0.28867328 0.087851822 0.0339798629283905 0.9984311461448669 -0.044503919780254364 255.0 35.0 1.0 1.0
-0.96996403 -0.26867041 0.11092244 0.034009356051683426 0.9992976784706116 -0.01573946699500084 255.0 36.0 1.0 1.0
-0.95945877 -0.27660418 0.11004333 0.034009356051683426 0.9992976784706116 -0.01573946699500084 255.0 36.0 1.0 1.0
-1.0013638 -0.27700144 0.14165638 0.04443937912583351 0.9967723488807678 -0.06685811281204224 255.0 37.0 1.0 1.0
-0.97174966 -0.2797901 0.13787282 0.04443937912583351 0.9967723488807678 -0.06685811281204224 255.0 37.0 1.0 1.0
-0.96723646 -0.26702625 0.16308203 0.023826370015740395 0.9997045397758484 -0.004823571536689997 255.0 38.0 1.0 1.0
