ply
format ascii 1.0
element vertex 426
property float x
property float y
property float z
property float nx
property float ny
property float nz
property float intensity
property float ring
property float return
property float label
end_header
5.1174288 -0.93418211 0.20857494 0.100612573325634 -0.9835696816444397 -0.1498929262161255 18.0 33.0 1.0 2.0
5.0887012 -0.98427981 0.34025523 -0.014361534267663956 -0.9462584257125854 -0.32309263944625854 220.0 34.0 1.0 2.0
5.1144338 -0.93376094 0.34135643 -0.017740191891789436 -0.9508746862411499 -0.30906710028648376 244.0 34.0 1.0 1.0
5.1213336 -0.99165183 0.4764317 0.21775725483894348 -0.9144823551177979 0.3410334885120392 15.0 35.0 1.0 2.0
5.158865 -0.94292563 0.47903255 0.05506714805960655 -0.9611809849739075 0.27036744356155396 23.0 35.0 1.0 2.0
5.1970229 -1.0083214 0.62039602 0.08491155505180359 -0.9855943918228149 0.1462659388780594 23.0 36.0 1.0 2.0
5.1643085 -0.9459129 0.61532617 0.05847638472914696 -0.9858018159866333 0.15740205347537994 24.0 36.0 1.0 2.0
5.1636748 -1.0038688 0.75432456 -0.011199294589459896 -0.9825296998023987 -0.1857689917087555 19.0 37.0 1.0 2.0
5.1777973 -0.95038283 0.75494576 0.04907342419028282 -0.9903492331504822 -0.1296154409646988 22.0 37.0 1.0 2.0
5.3398614 -1.0411512 0.92300832 -0.04342281445860863 -0.9727859497070312 -0.22760000824928284 30.0 38.0 1.0 2.0
5.2884145 -0.97367316 0.91235673 -0.0393056720495224 -0.9731457233428955 -0.22680911421775818 28.0 38.0 1.0 2.0
5.4337945 -1.0615776 1.0866696 -0.044957369565963745 -0.9713070392608643 -0.23354120552539825 34.0 39.0 1.0 5.0
5.4060125 -0.99740386 1.0790213 -0.05074281990528107 -0.9707124829292297 -0.23482422530651093 34.0 39.0 1.0 5.0
4.8022604 -0.94102621 1.0929409 -0.14802692830562592 -0.0935099646449089 -0.9845526218414307 190.0 40.0 1.0 1.0
4.8233671 -0.89271933 1.0956068 -0.15417256951332092 -0.5360258221626282 -0.8300043940544128 199.0 40.0 1.0 1.0
4.4750333 -0.88033044 1.1442761 -0.18173015117645264 -0.15419960021972656 -0.9711830615997314 235.0 41.0 1.0 1.0
4.4496756 -0.82694477 1.1355624 -0.09223517775535583 -0.05998337268829346 -0.9939289689064026 181.0 41.0 1.0 1.0
4.2168837 -0.83277512 1.1980138 -0.08424108475446701 -0.8679301738739014 -0.48949024081230164 247.0 42.0 1.0 1.0
4.2102218 -0.78564113 1.1937627 -0.12192607671022415 -0.33603012561798096 -0.9339260458946228 241.0 42.0 1.0 1.0
4.0748367 -0.80857384 1.2771221 -0.13088352978229523 -0.04787946492433548 -0.9902408719062805 241.0 43.0 1.0 1.0
4.1281772 -0.77419871 1.2912692 -0.09718770533800125 -0.0023135726805776358 -0.995263397693634 255.0 43.0 1.0 1.0
3.6640174 -0.7305696 1.2577467 -0.14738979935646057 -0.08136827498674393 -0.9857258796691895 255.0 44.0 1.0 1.0
3.6677415 -0.6913498 1.2565098 -0.11840604990720749 -0.08168802410364151 -0.9895994663238525 255.0 44.0 1.0 1.0
3.4191821 -0.68501896 1.2786831 -0.12836307287216187 -0.05752497538924217 -0.9900574684143066 255.0 45.0 1.0 1.0
3.4593785 -0.65535116 1.2911116 -0.1829703152179718 -0.1325065642595291 -0.9741477370262146 255.0 45.0 1.0 1.0
3.2307663 -0.6509456 1.3091296 -0.17545334994792938 -0.03772681578993797 -0.9837645888328552 255.0 46.0 1.0 1.0
3.2812297 -0.62530774 1.3268814 -0.5185893177986145 -0.05095423385500908 -0.8535037636756897 255.0 46.0 1.0 1.0
3.1040969 -0.6283865 1.3586535 -0.45903921127319336 0.009615840390324593 -0.8883638978004456 255.0 47.0 1.0 1.0
3.1177292 -0.59711182 1.3618406 -0.38045915961265564 -0.05308324843645096 -0.9232730269432068 255.0 47.0 1.0 1.0
3.0765193 -0.0056023174 1.4240327 -0.1637614667415619 -0.06592589616775513 -0.9842947125434875 255.0 48.0 1.0 1.0
3.0727801 0.026703743 1.4223422 -0.097699373960495 -0.01080145314335823 -0.9951573014259338 255.0 48.0 1.0 1.0
2.8961341 -0.0022174583 1.4394356 -0.1128547340631485 -0.050210949033498764 -0.992341935634613 255.0 49.0 1.0 1.0
2.9103274 0.028373884 1.4465444 -0.14053115248680115 -0.05003230273723602 -0.9888113141059875 255.0 49.0 1.0 1.0
2.7557256 0.0012864541 1.4675604 -0.14102965593338013 -0.04458000138401985 -0.9890010952949524 255.0 50.0 1.0 1.0
2.7520313 0.030228799 1.4656708 -0.14190082252025604 -0.058860138058662415 -0.9881292581558228 255.0 50.0 1.0 1.0
2.6016173 0.0053333733 1.4820685 -0.14235930144786835 -0.10552597045898438 -0.9841738343238831 255.0 51.0 1.0 1.0
2.6153226 0.032878134 1.4899759 -0.10854759812355042 -0.07143925130367279 -0.9915210008621216 255.0 51.0 1.0 1.0
2.4587078 0.0085046152 1.496183 -0.15122927725315094 -0.05763046815991402 -0.9868174195289612 255.0 52.0 1.0 1.0
2.4653194 0.03447412 1.5003307 -0.1495417356491089 -0.05764542892575264 -0.987073540687561 255.0 52.0 1.0 1.0
2.3367226 0.01219953 1.517381 -0.12932613492012024 -0.05514733865857124 -0.9900673627853394 255.0 53.0 1.0 1.0
2.3465326 0.036956299 1.5239044 -0.14980448782444 -0.06322235614061356 -0.9866921901702881 255.0 53.0 1.0 1.0
2.1981161 0.016121142 1.5229713 -0.12896908819675446 -0.07450880110263824 -0.9888455271720886 255.0 54.0 1.0 1.0
2.2109802 0.039503552 1.5320704 -0.12736600637435913 -0.07452437281608582 -0.9890521168708801 255.0 54.0 1.0 1.0
2.0926466 0.01977762 1.5466328 -0.1554010957479477 -0.07542943954467773 -0.9849675297737122 255.0 55.0 1.0 1.0
2.0923259 0.041820556 1.5466237 -0.1554010957479477 -0.07542943954467773 -0.9849675297737122 255.0 55.0 1.0 1.0
1.9773551 0.023919106 1.5592099 -0.1464662253856659 -0.03882289677858353 -0.9884535074234009 255.0 56.0 1.0 1.0
1.9832797 0.044898186 1.5641521 -0.14640729129314423 -0.04806828126311302 -0.9880558252334595 255.0 56.0 1.0 1.0
1.8743773 0.028297747 1.5779183 -0.11562491208314896 -0.04002257063984871 -0.992486298084259 255.0 57.0 1.0 1.0
1.867859 0.047899045 1.57276 -0.14959996938705444 -0.03983938321471214 -0.9879436492919922 255.0 57.0 1.0 1.0
1.7679851 0.032313921 1.5904677 -0.1772676557302475 -0.12737734615802765 -0.9758848547935486 255.0 58.0 1.0 1.0
1.7586297 0.050700918 1.5824378 -0.11424728482961655 -0.12857967615127563 -0.9850963950157166 253.0 58.0 1.0 1.0
1.6693727 0.036710884 1.6082932 -0.03904957324266434 -0.030560432001948357 -0.9987698197364807 255.0 59.0 1.0 1.0
1.6717788 0.05441888 1.611058 -0.0950804203748703 -0.0866515040397644 -0.9916911125183105 255.0 59.0 1.0 1.0
1.5530589 0.041021537 1.6058704 -0.13081206381320953 -0.055012814700603485 -0.9898796081542969 255.0 60.0 1.0 1.0
1.5636685 0.057829935 1.6173557 -0.11182043701410294 -0.03577583655714989 -0.9930843114852905 255.0 60.0 1.0 1.0
1.4664346 0.046528578 1.6318463 -0.12381529062986374 -0.056459661573171616 -0.9906977415084839 255.0 61.0 1.0 1.0
1.463195 0.061904974 1.6288646 -0.14084158837795258 -0.09126176685094833 -0.9858168363571167 255.0 61.0 1.0 1.0
1.3645903 0.051288135 1.6404988 -0.15532812476158142 -0.09057663381099701 -0.9837017059326172 255.0 62.0 1.0 1.0
1.3690954 0.065959312 1.6466358 -0.11855361610651016 -0.09104284644126892 -0.9887649416923523 255.0 62.0 1.0 1.0
1.2830528 0.057576116 1.6747413 -0.08824660629034042 -0.02755594812333584 -0.995717465877533 255.0 63.0 1.0 1.0
1.2677872 0.070336334 1.6556969 -0.12786702811717987 -0.10985389351844788 -0.9856886863708496 255.0 63.0 1.0 1.0
7.2246051 -0.038058013 -1.3953856 -0.1558874547481537 -0.7055568099021912 -0.6912949681282043 163.0 24.0 2.0 5.0
7.2442379 0.037619323 -1.3991998 0.2830413281917572 -0.7424629926681519 -0.6071541905403137 154.0 24.0 2.0 5.0
10.947614 -0.065069154 -1.8209054 -0.07689817249774933 -0.9772292375564575 0.19776174426078796 14.0 25.0 2.0 5.0
10.955578 0.049497865 -1.8222526 0.028736094012856483 -0.9883385896682739 0.14953619241714478 14.0 25.0 2.0 5.0
11.002895 -0.069155939 -1.5387678 -0.04367430508136749 -0.9974594116210938 0.056278422474861145 15.0 26.0 2.0 5.0
10.963393 0.045807954 -1.5332649 -0.01178257167339325 -0.9943597912788391 0.10540305078029633 15.0 26.0 2.0 5.0
10.99887 -0.07481157 -1.2521936 -0.015060214325785637 -0.9896635413169861 -0.1426156610250473 16.0 27.0 2.0 5.0
10.967248 0.040181521 -1.24861 -0.1254875361919403 -0.9902256727218628 -0.060875337570905685 16.0 27.0 2.0 5.0
11.027369 -0.078777298 -0.96918291 -0.0023709223605692387 -0.9994345903396606 0.03353843465447426 19.0 28.0 2.0 5.0
11.019614 0.036624003 -0.96851712 -0.02963722124695778 -0.99885493516922 0.037555549293756485 19.0 28.0 2.0 5.0
11.040579 -0.082650326 -0.68542308 0.0015854364028200507 -0.9999708533287048 0.007474205922335386 19.0 29.0 2.0 5.0
11.052811 0.032972552 -0.6862002 -0.01940351352095604 -0.9985793232917786 -0.04962775483727455 17.0 29.0 2.0 5.0
11.074441 -0.084762722 -0.40399215 0.020428048446774483 -0.9997841119766235 0.003790037939324975 14.0 30.0 2.0 5.0
11.066722 0.031176215 -0.40373492 -0.00025033773272298276 -0.9999927878379822 0.0037908286321908236 17.0 30.0 2.0 5.0
11.161101 -0.087299094 -0.12290463 -0.03379976749420166 -0.9990596771240234 -0.027154145762324333 7.0 31.0 2.0 5.0
11.105404 0.029440422 -0.12232444 -0.05181062966585159 -0.9982061982154846 0.029998738318681717 11.0 31.0 2.0 5.0
11.233799 -2.167402 0.1672475 0.1929890513420105 -0.9651868343353271 0.1765493005514145 20.0 32.0 2.0 5.0
11.251943 -2.0488989 0.16730307 0.15221095085144043 -0.9829707145690918 -0.10295826196670532 21.0 32.0 2.0 5.0
9.9811916 -1.8214203 0.4069868 0.100612573325634 -0.9835696816444397 -0.1498929262161255 18.0 33.0 2.0 5.0
7.6008363 -1.4714168 0.70710355 0.21775725483894348 -0.9144823551177979 0.3410334885120392 25.0 35.0 2.0 5.0
7.6981168 -1.4067039 0.7148248 0.05506714805960655 -0.9611809849739075 0.27036744356155396 18.0 35.0 2.0 5.0
6.8234091 -1.3236405 0.81450814 0.08491155505180359 -0.9855943918228149 0.1462659388780594 21.0 36.0 2.0 5.0
6.8759742 -1.2591914 0.81923503 0.05847638472914696 -0.9858018159866333 0.15740205347537994 22.0 36.0 2.0 5.0
6.5279651 -1.2689013 0.95356691 -0.011199294589459896 -0.9825296998023987 -0.1857689917087555 10.0 37.0 2.0 5.0
6.5369997 -1.199672 0.95306605 0.04907342419028282 -0.9903492331504822 -0.1296154409646988 15.0 37.0 2.0 5.0
1.2424086 -0.32876667 -1.6699852 0.08910530805587769 -0.017801500856876373 0.9958630800247192 255.0 0.0 1.0 1.0
1.2694499 -0.32182586 -1.7016467 0.06072838604450226 -0.01783960871398449 0.9979948997497559 255.0 0.0 1.0 1.0
1.3863162 -0.35696974 -1.7113986 0.09633529931306839 0.017765749245882034 0.995190441608429 255.0 1.0 1.0 1.0
1.3774983 -0.33946916 -1.6960468 0.09633529931306839 0.017765749245882034 0.995190441608429 255.0 1.0 1.0 1.0
1.5100642 -0.380321 -1.7239362 0.11153718829154968 -0.011078461073338985 0.9936985373497009 255.0 2.0 1.0 1.0
1.50352 -0.3620826 -1.7120488 0.12493526935577393 -0.012409229762852192 0.9920872449874878 255.0 2.0 1.0 1.0
1.6512978 -0.40749028 -1.7481958 0.14002616703510284 0.03826475888490677 0.9894081354141235 255.0 3.0 1.0 1.0
1.6310134 -0.38452756 -1.722386 0.19588102400302887 0.04899583384394646 0.9794029593467712 250.0 3.0 1.0 1.0
1.779237 -0.43165261 -1.7533525 0.11357630044221878 0.03205040469765663 0.9930121302604675 255.0 4.0 1.0 1.0
1.7752025 -0.41114983 -1.7450336 0.10488734394311905 0.03208121284842491 0.9939665794372559 255.0 4.0 1.0 1.0
1.925148 -0.46008766 -1.7694343 0.10784901678562164 0.04630056023597717 0.9930884838104248 253.0 5.0 1.0 1.0
1.9327612 -0.44067207 -1.7720727 0.09028686583042145 0.02068590372800827 0.9957008957862854 255.0 5.0 1.0 1.0
2.0783072 -0.48993298 -1.7846993 0.16492293775081635 0.012770654633641243 0.9862237572669983 247.0 6.0 1.0 1.0
2.0863113 -0.46892327 -1.7872354 0.14795129001140594 0.005921649280935526 0.9889769554138184 253.0 6.0 1.0 1.0
2.2571967 -0.52599591 -1.8135017 0.06072285398840904 -0.022403039038181305 0.9979032874107361 247.0 7.0 1.0 1.0
2.2410355 -0.49766469 -1.7962285 0.0885004848241806 0.0033603694755584 0.9960705041885376 241.0 7.0 1.0 1.0
2.4381208 -0.56245184 -1.834843 0.11615218222141266 0.03761906921863556 0.9925187826156616 255.0 8.0 1.0 1.0
2.4470201 -0.53769314 -1.8371757 0.13862501084804535 0.0375097431242466 0.9896343350410461 255.0 8.0 1.0 1.0
2.621242 -0.59856254 -1.8483691 0.18071871995925903 0.04546620324254036 0.9824833869934082 238.0 9.0 1.0 1.0
2.6305797 -0.57189322 -1.8506006 0.09038374572992325 0.04603813216090202 0.9948423504829407 241.0 9.0 1.0 1.0
2.8586118 -0.64815444 -1.8882543 0.1630810648202896 0.07897317409515381 0.9834468960762024 238.0 10.0 1.0 1.0
2.852082 -0.6154651 -1.8795587 0.09572876989841461 0.04038001969456673 0.9945880174636841 232.0 10.0 1.0 1.0
3.0896749 -0.69500017 -1.9108077 0.052125927060842514 0.008585920557379723 0.9986035823822021 220.0 11.0 1.0 1.0
3.0766754 -0.65842801 -1.8983778 0.17058074474334717 0.06535524874925613 0.9831738471984863 202.0 11.0 1.0 1.0
3.371567 -0.75296664 -1.949335 0.1006375178694725 -0.004326046910136938 0.9949137568473816 223.0 12.0 1.0 1.0
3.3553991 -0.71267641 -1.9355413 0.1281815469264984 0.05534977465867996 0.9902050495147705 202.0 12.0 1.0 1.0
3.6668684 -0.81433421 -1.981084 0.10693833231925964 0.1073930487036705 0.9884487390518188 190.0 13.0 1.0 1.0
3.6855729 -0.77820492 -1.9866344 0.1257062405347824 0.09932158142328262 0.9870831370353699 190.0 13.0 1.0 1.0
4.0323596 -0.89119083 -2.0321493 0.17648424208164215 0.10900753736495972 0.9782487750053406 166.0 14.0 1.0 1.0
4.0449753 -0.84977931 -2.0338655 0.09372756630182266 0.05256913602352142 0.9942090511322021 178.0 14.0 1.0 1.0
4.4310827 -0.97457421 -2.0787785 0.14028824865818024 0.07049143314361572 0.987598180770874 115.0 15.0 1.0 1.0
4.4481559 -0.92973632 -2.0820558 0.10819299519062042 0.040948811918497086 0.9932861924171448 139.0 15.0 1.0 1.0
4.0197377 -0.076855429 -1.7136115 -0.03857363015413284 -0.9977774620056152 -0.054333824664354324 255.0 16.0 1.0 1.0
3.9908745 -0.034608074 -1.701081 -0.03115733154118061 -0.9979632496833801 -0.05566447600722313 255.0 16.0 1.0 1.0
3.9977696 -0.080592729 -1.5772126 0.040836215019226074 -0.9823893904685974 0.18232807517051697 255.0 17.0 1.0 1.0
3.9946649 -0.038782649 -1.5757545 0.044078849256038666 -0.9899869561195374 0.13410089910030365 255.0 17.0 1.0 1.0
4.0990143 -0.087603413 -1.490204 0.14884690940380096 -0.14840716123580933 0.9776604771614075 172.0 18.0 1.0 1.0
4.0959401 -0.044721633 -1.488847 0.12723571062088013 -0.1697327047586441 0.9772419333457947 193.0 18.0 1.0 1.0
4.4787807 -0.10035057 -1.4936594 -0.13593463599681854 -0.9901893734931946 -0.03235463798046112 238.0 19.0 1.0 1.0
4.4833727 -0.053576924 -1.4949329 -0.00710090110078454 -0.9994414448738098 -0.0326569490134716 241.0 19.0 1.0 1.0
4.5013628 -0.1047575 -1.3697549 -0.01903401128947735 -0.9868283271789551 0.16064763069152832 253.0 20.0 1.0 1.0
4.4983788 -0.057644971 -1.3686004 0.006188133731484413 -0.9906461238861084 0.13631588220596313 253.0 20.0 1.0 1.0
4.5510702 -0.10985856 -1.2553064 0.005100083537399769 -0.9444280862808228 0.32867881655693054 253.0 21.0 1.0 1.0
4.5635324 -0.06242324 -1.2585028 0.0655844509601593 -0.9370426535606384 0.34300127625465393 255.0 21.0 1.0 1.0
4.6018395 -0.11507473 -1.1397425 -0.021480869501829147 -0.9109936356544495 0.41186049580574036 253.0 22.0 1.0 1.0
4.5989032 -0.066885635 -1.1387905 0.044701412320137024 -0.907728910446167 0.4171692430973053 253.0 22.0 1.0 1.0
4.6766458 -0.120185 -1.0300881 0.08140312880277634 -0.925784707069397 0.369183212518692 229.0 23.0 1.0 1.0
4.6698303 -0.071142189 -1.0283775 0.08845898509025574 -0.8955437541007996 0.43609198927879333 235.0 23.0 1.0 1.0
4.9725437 -0.13035282 -0.96101868 -0.084900863468647 -0.8984163999557495 -0.4308595061302185 73.0 24.0 1.0 2.0
4.9854112 -0.07850866 -0.96330208 -0.14869730174541473 -0.79085773229599 -0.593660831451416 79.0 24.0 1.0 2.0
5.003571 -0.13463898 -0.83296394 -0.02446385845541954 -0.9725956320762634 0.23121261596679688 136.0 25.0 1.0 2.0
5.0165367 -0.082470208 -0.83494079 0.04999072849750519 -0.9750116467475891 0.21645617485046387 151.0 25.0 1.0 2.0
5.035254 -0.13723014 -0.70484525 -0.013607895001769066 -0.9943491220474243 0.10528338700532913 187.0 26.0 1.0 2.0
5.0284882 -0.084394045 -0.70374614 0.04785068333148956 -0.9972684383392334 0.05626764893531799 190.0 26.0 1.0 2.0
5.0237393 -0.1395319 -0.57253295 0.002666305750608444 -0.989672064781189 -0.14332546293735504 163.0 27.0 1.0 2.0
5.0368414 -0.087144718 -0.57389808 0.04924406111240387 -0.9927096366882324 -0.11001177132129669 154.0 27.0 1.0 2.0
5.0486727 -0.14196987 -0.4442451 0.061224207282066345 -0.9970602989196777 0.0460696816444397 148.0 28.0 1.0 2.0
5.0419102 -0.088966765 -0.44355327 0.038809116929769516 -0.9940593242645264 0.1016857847571373 187.0 28.0 1.0 2.0
5.0623341 -0.14410639 -0.31473181 -0.0734758973121643 -0.9906145334243774 0.11525630950927734 139.0 29.0 1.0 2.0
5.0475945 -0.09080413 -0.3137491 0.009833896532654762 -0.9962885975837708 0.08551214635372162 151.0 29.0 1.0 2.0
5.0886583 -0.14572759 -0.18600996 -0.02245708741247654 -0.9962119460105896 0.08400922268629074 103.0 30.0 1.0 2.0
5.0419416 -0.091558777 -0.18426973 0.019045012071728706 -0.9855713248252869 0.16818588972091675 76.0 30.0 1.0 2.0
5.0757136 -0.14622958 -0.056197472 -0.035192571580410004 -0.9990410804748535 0.026046056300401688 29.0 31.0 1.0 2.0
5.060967 -0.092763282 -0.056029748 -0.07662039995193481 -0.9963392019271851 0.0379122830927372 30.0 31.0 1.0 2.0
5.0817246 -1.0916951 0.075590633 -0.6146286725997925 -0.7847452759742737 0.08004041761159897 226.0 32.0 1.0 1.0
11.22226 -2.2873166 0.16714765 -0.6397536396980286 -0.760534405708313 0.11091723293066025 18.0 32.0 1.0 5.0
5.0816798 -1.0936948 0.20810945 -0.2931422293186188 -0.9558116793632507 0.022172996774315834 163.0 33.0 1.0 2.0
5.0654397 -1.0347914 0.20704676 -0.27295756340026855 -0.8888710141181946 -0.36797085404396057 15.0 33.0 1.0 2.0
5.0748043 -1.0923693 0.34052739 -0.06363686174154282 -0.9777366518974304 -0.19995388388633728 208.0 34.0 1.0 1.0
5.0859628 -1.0391244 0.34058672 -0.008018632419407368 -0.9607675671577454 -0.2772389352321625 214.0 34.0 1.0 1.0
5.1267323 -1.104633 0.4787246 -0.6457290053367615 -0.738176167011261 0.1952693909406662 23.0 35.0 1.0 1.0
5.1614332 -1.0556192 0.48096779 -0.15054047107696533 -0.9376504421234131 0.3132878839969635 16.0 35.0 1.0 1.0
5.159266 -1.1136825 0.61827618 -0.6723813414573669 -0.7249675989151001 0.14941664040088654 13.0 36.0 1.0 1.0
5.1978879 -1.0651108 0.62159586 0.13964422047138214 -0.9765927195549011 0.16360367834568024 15.0 36.0 1.0 2.0
5.1454258 -1.1127387 0.75463581 -0.15322110056877136 -0.9695706963539124 -0.190934419631958 15.0 37.0 1.0 1.0
5.1606731 -1.0595195 0.75526422 -0.0778324156999588 -0.9763533473014832 -0.2016836553812027 19.0 37.0 1.0 2.0
5.3905106 -1.109779 0.93350941 -0.057310257107019424 -0.9720135927200317 -0.22782695293426514 30.0 38.0 1.0 5.0
5.4449363 -1.1827935 1.093331 -0.04772341623902321 -0.9710096120834351 -0.23422807455062866 33.0 39.0 1.0 5.0
5.4685564 -1.1279917 1.0957063 -0.04347240552306175 -0.9708656072616577 -0.235648512840271 33.0 39.0 1.0 5.0
4.7700987 -1.0390618 1.0900866 -0.09345190227031708 -0.036294303834438324 -0.9949620366096497 163.0 40.0 1.0 1.0
4.7921877 -0.99132752 1.0927585 -0.1255146563053131 -0.10452449321746826 -0.9865700602531433 169.0 40.0 1.0 1.0
4.4101739 -0.96409029 1.1323749 -0.1707184910774231 -0.08430451899766922 -0.9817066192626953 130.0 41.0 1.0 1.0
4.4276257 -0.91933215 1.1343739 -0.03681238368153572 -0.1134612038731575 -0.9928601980209351 163.0 41.0 1.0 1.0
4.2136183 -0.9243837 1.2020979 -0.034895159304142 -0.9219576120376587 -0.3857155740261078 255.0 42.0 1.0 1.0
4.2230673 -0.8801046 1.2021484 -0.07846429198980331 -0.9078032374382019 -0.41199126839637756 255.0 42.0 1.0 1.0
3.788202 -0.83473277 1.1923119 -0.11051685363054276 -0.2621065676212311 -0.9586898684501648 37.0 43.0 1.0 1.0
4.0250273 -0.84266913 1.2640408 -0.12232815474271774 -0.027529804036021233 -0.9921078085899353 229.0 43.0 1.0 1.0
3.6072409 -0.79832965 1.2435291 -0.14254480600357056 -0.06618034094572067 -0.9875733256340027 255.0 44.0 1.0 1.0
3.6228235 -0.76196331 1.2461245 -0.17733433842658997 -0.07745999097824097 -0.9810975790023804 255.0 44.0 1.0 1.0
3.4224627 -0.76074052 1.2853948 -0.1448853313922882 -0.07240454107522964 -0.9867957234382629 255.0 45.0 1.0 1.0
3.4339166 -0.72552425 1.2868131 -0.10972420126199722 -0.038660548627376556 -0.9932098984718323 255.0 45.0 1.0 1.0
3.2092142 -0.7170428 1.3060148 -0.08631044626235962 -0.0668230727314949 -0.9940246939659119 255.0 46.0 1.0 1.0
3.2092743 -0.68174183 1.3031018 -0.13898582756519318 -0.0003453012031968683 -0.9902942776679993 255.0 46.0 1.0 1.0
3.0364945 -0.68140131 1.3348503 -0.1824025809764862 -0.09705951809883118 -0.9784215688705444 255.0 47.0 1.0 1.0
3.0542505 -0.65175128 1.3396174 -0.4590217173099518 -0.012990949675440788 -0.8883300423622131 255.0 47.0 1.0 1.0
3.061255 -0.069917455 1.4172436 -0.09211340546607971 -0.06478681415319443 -0.9936386346817017 255.0 48.0 1.0 1.0
3.07634 -0.037914317 1.423956 -0.09571781754493713 -0.06652124226093292 -0.9931833148002625 255.0 48.0 1.0 1.0
2.8704274 -0.062544964 1.4269122 -0.13892139494419098 -0.036097411066293716 -0.9896453022956848 253.0 49.0 1.0 1.0
2.8852541 -0.032522283 1.4340248 -0.09904669970273972 -0.03627162426710129 -0.9944215416908264 255.0 49.0 1.0 1.0
2.7375426 -0.056288823 1.4581009 -0.10571317374706268 -0.10860539227724075 -0.9884480834007263 255.0 50.0 1.0 1.0
2.7379832 -0.027495481 1.458095 -0.11535670608282089 -0.04472945258021355 -0.9923165440559387 255.0 50.0 1.0 1.0
2.6046796 -0.049444523 1.4839901 -0.1174759641289711 -0.11687122285366058 -0.9861746430397034 255.0 51.0 1.0 1.0
2.598104 -0.021983324 1.4800258 -0.14414280652999878 -0.11204581707715988 -0.9831930994987488 255.0 51.0 1.0 1.0
2.4549756 -0.043158334 1.4940506 -0.1199444979429245 -0.06807045638561249 -0.9904441833496094 255.0 52.0 1.0 1.0
2.4450417 -0.017251333 1.4878092 -0.12008322030305862 -0.048266515135765076 -0.9915897846221924 255.0 52.0 1.0 1.0
2.3331571 -0.036920119 1.5151529 -0.12701264023780823 -0.06810701638460159 -0.9895601272583008 255.0 53.0 1.0 1.0
2.3300614 -0.012341302 1.5129696 -0.12932613492012024 -0.05514733865857124 -0.9900673627853394 255.0 53.0 1.0 1.0
2.2045949 -0.030240007 1.5274786 -0.1344011127948761 -0.05626785010099411 -0.9893282055854797 255.0 54.0 1.0 1.0
2.2047915 -0.0070242588 1.5274727 -0.11107715964317322 -0.05643165484070778 -0.9922083020210266 255.0 54.0 1.0 1.0
2.0765615 -0.024105772 1.5347073 -0.14593374729156494 -0.063282810151577 -0.987268328666687 255.0 55.0 1.0 1.0
2.0863545 -0.0022395365 1.5418304 -0.13163726031780243 -0.07157433032989502 -0.9887106418609619 255.0 55.0 1.0 1.0
1.9711859 -0.017682223 1.5542183 -0.11933878064155579 -0.05729278549551964 -0.9911991357803345 255.0 56.0 1.0 1.0
1.9744064 0.0030959803 1.5566878 -0.11933878064155579 -0.05729278549551964 -0.9911991357803345 255.0 56.0 1.0 1.0
1.8623617 -0.011134978 1.5675821 -0.1392492651939392 -0.053494904190301895 -0.9888114333152771 255.0 57.0 1.0 1.0
1.8684999 0.0085277427 1.5727255 -0.1289977878332138 -0.05356985703110695 -0.9901968836784363 255.0 57.0 1.0 1.0
1.7564214 -0.0049338802 1.5797386 -0.13704010844230652 -0.08864603191614151 -0.9865910410881042 255.0 58.0 1.0 1.0
1.7593534 0.013614844 1.5824062 -0.1390443742275238 -0.08862103521823883 -0.9863128066062927 253.0 58.0 1.0 1.0
1.6698235 0.0014929264 1.6082617 -0.1743827909231186 -0.04050971940159798 -0.9838443398475647 255.0 59.0 1.0 1.0
1.6668357 0.019079359 1.6054819 -0.1743827909231186 -0.04050971940159798 -0.9838443398475647 255.0 59.0 1.0 1.0
1.5452774 0.0081924824 1.597222 -0.15224143862724304 -0.05484280362725258 -0.9868205189704895 255.0 60.0 1.0 1.0
1.5478907 0.024551816 1.6000892 -0.15224143862724304 -0.05484280362725258 -0.9868205189704895 250.0 60.0 1.0 1.0
1.4617842 0.015496468 1.6258749 -0.10339966416358948 -0.05204903334379196 -0.9932771921157837 255.0 61.0 1.0 1.0
1.4722449 0.031166725 1.6377608 -0.16026340425014496 -0.04484406113624573 -0.9860551357269287 255.0 61.0 1.0 1.0
1.3628534 0.02240145 1.6374037 -0.05851208046078682 -0.14203567802906036 -0.9881306886672974 255.0 62.0 1.0 1.0
1.3702253 0.037016645 1.6466155 -0.20388203859329224 -0.14010369777679443 -0.96891850233078 255.0 62.0 1.0 1.0
1.2596723 0.029851021 1.6429961 -0.08824660629034042 -0.02755594812333584 -0.995717465877533 255.0 63.0 1.0 1.0
1.2739005 0.043680567 1.6620246 -0.08824660629034042 -0.02755594812333584 -0.995717465877533 255.0 63.0 1.0 1.0
7.0219779 -0.18392257 -1.3568877 -0.084900863468647 -0.8984163999557495 -0.4308595061302185 181.0 24.0 2.0 5.0
7.0549278 -0.11095054 -1.3629663 -0.14869730174541473 -0.79085773229599 -0.593660831451416 118.0 24.0 2.0 5.0
10.963552 -0.29458264 -1.8244497 -0.02446385845541954 -0.9725956320762634 0.23121261596679688 13.0 25.0 2.0 5.0
10.954189 -0.17967802 -1.8225005 0.04999072849750519 -0.9750116467475891 0.21645617485046387 16.0 25.0 2.0 5.0
10.991098 -0.29912007 -1.5379255 -0.013607895001769066 -0.9943491220474243 0.10528338700532913 18.0 26.0 2.0 5.0
10.969854 -0.18370284 -1.5346212 0.04785068333148956 -0.9972684383392334 0.05626764893531799 16.0 26.0 2.0 5.0
10.978991 -0.30450326 -1.2506502 0.002666305750608444 -0.989672064781189 -0.14332546293735504 18.0 27.0 2.0 5.0
10.985543 -0.18965785 -1.251121 0.04924406111240387 -0.9927096366882324 -0.11001177132129669 18.0 27.0 2.0 5.0
11.023297 -0.30954391 -0.96945012 0.061224207282066345 -0.9970602989196777 0.0460696816444397 18.0 28.0 2.0 5.0
11.017961 -0.19400564 -0.96876818 0.038809116929769516 -0.9940593242645264 0.1016857847571373 18.0 28.0 2.0 5.0
11.064363 -0.31452611 -0.68742543 -0.0734758973121643 -0.9906145334243774 0.11525630950927734 16.0 29.0 2.0 5.0
11.027129 -0.19796084 -0.68496591 0.009833896532654762 -0.9962885975837708 0.08551214635372162 17.0 29.0 2.0 5.0
11.090223 -0.31716314 -0.40499005 -0.02245708741247654 -0.9962119460105896 0.08400922268629074 12.0 30.0 2.0 5.0
11.092932 -0.20102221 -0.40500808 0.019045012071728706 -0.9855713248252869 0.16818588972091675 12.0 30.0 2.0 5.0
11.140847 -0.32052162 -0.12300022 -0.035192571580410004 -0.9990410804748535 0.026046056300401688 12.0 31.0 2.0 5.0
11.13959 -0.20375857 -0.12297445 -0.07662039995193481 -0.9963392019271851 0.0379122830927372 9.0 31.0 2.0 5.0
22.281824 -4.5407453 0.33193696 -0.6397536396980286 -0.760534405708313 0.11091723293066025 19.0 32.0 2.0 6.0
22.370333 -4.5675383 0.91518056 -0.27295756340026855 -0.8888710141181946 -0.36797085404396057 21.0 33.0 2.0 6.0
7.5460219 -1.5429783 0.70317674 -0.15054047107696533 -0.9376504421234131 0.3132878839969635 23.0 35.0 2.0 1.0
22.510723 -4.8567543 2.6979234 -0.6723813414573669 -0.7249675989151001 0.14941664040088654 15.0 36.0 2.0 1.0
6.7586169 -1.3846955 0.80819726 0.13964422047138214 -0.9765927195549011 0.16360367834568024 25.0 36.0 2.0 5.0
22.592152 -4.8832803 3.3135121 -0.15322110056877136 -0.9695706963539124 -0.190934419631958 13.0 37.0 2.0 1.0
1.2459329 -0.34360299 -1.6795403 0.14250069856643677 -0.0718182772397995 0.9871857762336731 255.0 0.0 1.0 1.0
1.2516655 -0.35921985 -1.6922342 0.14250069856643677 -0.0718182772397995 0.9871857762336731 255.0 0.0 1.0 1.0
1.3750305 -0.36936986 -1.7022556 0.11672717332839966 0.017726751044392586 0.9930058717727661 255.0 1.0 1.0 1.0
1.3908869 -0.38917285 -1.7268095 0.1469738483428955 -0.01305498369038105 0.989054262638092 255.0 1.0 1.0 1.0
1.4981843 -0.39396581 -1.7150973 0.0818711668252945 -0.0017940161051228642 0.9966413378715515 255.0 2.0 1.0 1.0
1.4913977 -0.40882218 -1.7121544 0.0818711668252945 -0.0017940161051228642 0.9966413378715515 255.0 2.0 1.0 1.0
1.6279902 -0.41978383 -1.7282046 0.14002616703510284 0.03826475888490677 0.9894081354141235 247.0 3.0 1.0 1.0
1.6504693 -0.44394276 -1.7568837 0.10147175192832947 -0.00278694205917418 0.9948345422744751 255.0 3.0 1.0 1.0
1.7829961 -0.45228207 -1.7617188 0.11884258687496185 0.03738260269165039 0.9922091960906982 255.0 4.0 1.0 1.0
1.7781714 -0.47082257 -1.7617458 0.1018698513507843 0.037453558295965195 0.9940924644470215 253.0 4.0 1.0 1.0
1.9115109 -0.47794533 -1.7615181 0.10784901678562164 0.04630056023597717 0.9930884838104248 244.0 5.0 1.0 1.0
1.9179584 -0.50084078 -1.772204 0.14130817353725433 0.031164834275841713 0.9894749522209167 250.0 5.0 1.0 1.0
2.0849578 -0.5144971 -1.7950369 0.16492293775081635 0.012770654633641243 0.9862237572669983 255.0 6.0 1.0 1.0
2.085412 -0.53772473 -1.8001952 0.12361809611320496 0.0019341087900102139 0.9923279285430908 250.0 6.0 1.0 1.0
2.2484725 -0.54874414 -1.8111277 0.06072285398840904 -0.022403039038181305 0.9979032874107361 244.0 7.0 1.0 1.0
2.2517736 -0.57448405 -1.8185511 0.10635906457901001 0.04524463415145874 0.9932979345321655 253.0 7.0 1.0 1.0
2.4508855 -0.59237951 -1.8491242 0.09007653594017029 0.011278131976723671 0.9958710074424744 255.0 8.0 1.0 1.0
2.4289155 -0.61395085 -1.8373386 0.10279452055692673 0.011264177970588207 0.9946388006210327 244.0 8.0 1.0 1.0
2.6340396 -0.63046062 -1.8620615 0.13139662146568298 0.08277047425508499 0.9878683686256409 247.0 9.0 1.0 1.0
2.6177075 -0.655496 -1.8553042 0.16385352611541748 0.09865058213472366 0.9815396666526794 235.0 9.0 1.0 1.0
2.8450916 -0.67637789 -1.884037 0.1173303872346878 0.07949188351631165 0.989906370639801 226.0 10.0 1.0 1.0
2.8411267 -0.7068302 -1.886242 0.13475385308265686 0.07140473276376724 0.988303005695343 226.0 10.0 1.0 1.0
3.0855298 -0.72797775 -1.9129951 0.06908727437257767 0.025604788213968277 0.9972819685935974 214.0 11.0 1.0 1.0
3.1043532 -0.76669621 -1.9295619 0.20171122252941132 0.0333327054977417 0.9788776636123657 232.0 11.0 1.0 1.0
3.3702497 -0.78969145 -1.9533976 0.16172099113464355 0.07067567110061646 0.9843024611473083 217.0 12.0 1.0 1.0
3.3584213 -0.82399112 -1.9514792 0.07062475383281708 0.058501794934272766 0.9957858920097351 211.0 12.0 1.0 1.0
3.6615529 -0.85335851 -1.9830937 0.12088692933320999 0.033608611673116684 0.9920971393585205 181.0 13.0 1.0 1.0
3.6730528 -0.89656347 -1.9943354 0.14378944039344788 0.041306767612695694 0.9887458086013794 193.0 13.0 1.0 1.0
4.0332627 -0.93566227 -2.0376043 0.1279308795928955 -0.011254759505391121 0.9917192459106445 157.0 14.0 1.0 1.0
4.0441818 -0.98280203 -2.0482516 0.1437794417142868 -0.011230096220970154 0.9895460605621338 163.0 14.0 1.0 1.0
4.4560361 -1.0289565 -2.0956085 0.16209255158901215 0.09626523405313492 0.9820687770843506 121.0 15.0 1.0 1.0
4.4556327 -1.0779967 -2.1006653 0.11499766260385513 0.09514350444078445 0.988798975944519 124.0 15.0 1.0 1.0
4.0039687 -0.11839477 -1.7074468 -0.033495716750621796 -0.9978067278862 -0.057095013558864594 255.0 16.0 1.0 1.0
3.9951639 -0.15992048 -1.7043086 -0.054023925215005875 -0.9953556656837463 -0.07967734336853027 255.0 16.0 1.0 1.0
3.9966795 -0.12234517 -1.5773176 0.01867101900279522 -0.983817994594574 0.17819525301456451 255.0 17.0 1.0 1.0
4.0137787 -0.16485918 -1.5846493 0.03619230166077614 -0.9793643355369568 0.19883538782596588 255.0 17.0 1.0 1.0
4.1354256 -0.13161317 -1.5039685 0.10975995659828186 -0.14819011092185974 0.98284912109375 181.0 18.0 1.0 1.0
4.1526108 -0.17561597 -1.5107942 0.15787966549396515 0.11073429882526398 0.9812297821044922 169.0 18.0 1.0 1.0
4.4774599 -0.1471415 -1.4937781 -0.21075822412967682 -0.9740834832191467 0.0821111872792244 247.0 19.0 1.0 1.0
4.4756818 -0.19393268 -1.4937757 -0.32550233602523804 -0.9292832612991333 0.1745876520872116 247.0 19.0 1.0 1.0
4.4999976 -0.15179266 -1.3698745 -0.0980459526181221 -0.9704647064208984 0.22042067348957062 247.0 20.0 1.0 1.0
4.4981689 -0.19882894 -1.3698725 -0.17085936665534973 -0.9535922408103943 0.2479291558265686 253.0 20.0 1.0 1.0
4.5303822 -0.15675649 -1.2501142 -0.012661118991672993 -0.9422922134399414 0.33455175161361694 250.0 21.0 1.0 1.0
4.5477614 -0.20498528 -1.2554257 -0.030585771426558495 -0.9334865212440491 0.3573055565357208 247.0 21.0 1.0 1.0
4.6042471 -0.1633134 -1.1408262 0.015564652159810066 -0.9143258333206177 0.404680073261261 253.0 22.0 1.0 1.0
4.6139283 -0.2119907 -1.1437068 -0.009289068169891834 -0.9039721488952637 0.4274905025959015 253.0 22.0 1.0 1.0
4.68683 -0.16949946 -1.0327921 -0.010325003415346146 -0.9623599052429199 0.2715817987918854 226.0 23.0 1.0 1.0
4.6652937 -0.2176061 -1.0284926 -0.022654155269265175 -0.9651443958282471 0.2607356309890747 208.0 23.0 1.0 1.0
4.9708958 -0.18234506 -0.96115208 -0.10615410655736923 -0.8941516876220703 -0.4349990487098694 85.0 24.0 1.0 2.0
4.9883356 -0.23526278 -0.96494222 -0.05599985271692276 -0.903559684753418 -0.4247870147228241 52.0 24.0 1.0 2.0
5.0018787 -0.18696415 -0.83309841 -0.008119138889014721 -0.9813877940177917 0.19186466932296753 133.0 25.0 1.0 2.0
4.9917698 -0.23891486 -0.83178496 0.06324037164449692 -0.9481654763221741 0.31142091751098633 130.0 25.0 1.0 2.0
5.0295782 -0.18974614 -0.70442683 0.01998850516974926 -0.9980703592300415 0.05878766253590584 151.0 26.0 1.0 2.0
5.0471048 -0.2433255 -0.70719546 -0.03784429281949997 -0.9992473721504211 -0.008517051115632057 148.0 26.0 1.0 2.0
5.0299444 -0.19238879 -0.57357305 0.011678295210003853 -0.9996397495269775 -0.024166930466890335 142.0 27.0 1.0 2.0
5.0475068 -0.24599403 -0.57583416 -0.008782821707427502 -0.9996694326400757 -0.02416764572262764 136.0 27.0 1.0 2.0
5.0469112 -0.19479279 -0.44438121 0.0022167174611240625 -0.9997411370277405 0.02264389768242836 118.0 28.0 1.0 2.0
5.0406194 -0.2474239 -0.4440304 -0.06566999852657318 -0.9923739433288574 0.10431298613548279 94.0 28.0 1.0 2.0
5.0485845 -0.19661483 -0.31412497 0.006457306910306215 -0.997566282749176 0.06942502409219742 109.0 29.0 1.0 2.0
5.0661902 -0.25045177 -0.31536347 -0.010381294414401054 -0.9975325465202332 0.06943456828594208 64.0 29.0 1.0 2.0
5.0828681 -0.1988292 -0.18600152 -0.029572902247309685 -0.9978906512260437 0.05778972804546356 76.0 30.0 1.0 2.0
5.0685334 -0.25145668 -0.18556367 -0.0323786586523056 -0.9993076920509338 -0.018321700394153595 13.0 30.0 1.0 2.0
5.085906 -0.19983041 -0.056466673 0.021398108452558517 -0.9950134754180908 0.09741832315921783 27.0 31.0 1.0 2.0
5.0715532 -0.25249636 -0.056334145 -0.026547927409410477 -0.9959754347801208 0.08560393750667572 29.0 31.0 1.0 2.0
5.0856395 -1.1483678 0.075624801 0.38691776990890503 -0.921284556388855 -0.03910752385854721 255.0 32.0 1.0 1.0
5.1200428 -1.212639 0.076256812 0.08425406366586685 -0.9964412450790405 0.00247072777710855 255.0 32.0 1.0 1.0
5.0933619 -1.1521418 0.20887099 0.2894301116466522 -0.9522210955619812 0.09749424457550049 250.0 33.0 1.0 1.0
5.1199098 -1.2146689 0.2104044 0.23621731996536255 -0.9716758131980896 -0.006892036646604538 255.0 33.0 1.0 1.0
5.1215105 -1.1586684 0.34425685 0.03736785426735878 -0.9968655705451965 -0.06973261386156082 255.0 34.0 1.0 1.0
5.0780287 -1.2049112 0.34209457 -0.01005768682807684 -0.9999446272850037 -0.003099263645708561 187.0 34.0 1.0 1.0
5.1537657 -1.1670727 0.48216003 -0.31953853368759155 -0.9474549889564514 0.014970154501497746 255.0 35.0 1.0 1.0
5.1102571 -1.213671 0.47918317 0.1671670824289322 -0.9858863949775696 0.009120089933276176 118.0 35.0 1.0 1.0
5.1473546 -1.167679 0.61807376 -0.619586706161499 -0.7815954089164734 0.07225606590509415 238.0 36.0 1.0 1.0
5.1232505 -1.2188221 0.61660963 0.3822358250617981 -0.9238283038139343 -0.020902488380670547 205.0 36.0 1.0 1.0
5.1721401 -1.1753684 0.76010931 -0.16192129254341125 -0.9730801582336426 -0.1640012562274933 211.0 37.0 1.0 1.0
5.1556964 -1.2286209 0.75947315 -0.14447404444217682 -0.9769222140312195 -0.15732227265834808 241.0 37.0 1.0 1.0
5.1854 -1.1814101 0.90180105 -0.10127320885658264 -0.9767857789993286 -0.1887674480676651 88.0 38.0 1.0 1.0
5.1919236 -1.2403076 0.90507573 -0.08621719479560852 -0.9824987053871155 -0.16511483490467072 253.0 38.0 1.0 1.0
5.2868762 -1.2066377 1.0638535 -0.05524701625108719 -0.9723105430603027 -0.22706809639930725 35.0 39.0 1.0 2.0
5.1823297 -1.2401167 1.0453023 -0.056135039776563644 -0.973849892616272 -0.22014829516410828 235.0 39.0 1.0 1.0
4.7171392 -1.0794468 1.0803121 -0.11358135938644409 -0.030512986704707146 -0.9930600523948669 115.0 40.0 1.0 1.0
4.6941872 -1.1261488 1.0776346 -0.1346217393875122 -0.030432162806391716 -0.9904296398162842 124.0 40.0 1.0 1.0
4.4074454 -1.0120234 1.1341474 -0.16045747697353363 -0.09541837871074677 -0.9824199080467224 142.0 41.0 1.0 1.0
4.3777437 -1.0536846 1.1292235 -0.17302869260311127 -0.10182797908782959 -0.9796388149261475 142.0 41.0 1.0 1.0
4.2375493 -0.97631198 1.2115936 -0.020678749307990074 -0.9734358787536621 -0.2280239313840866 255.0 42.0 1.0 1.0
4.2233467 -1.0198339 1.210463 -0.029287809506058693 -0.984309732913971 -0.17400196194648743 255.0 42.0 1.0 1.0
3.7643986 -0.87098676 1.1874632 -0.1937897801399231 -0.2565157115459442 -0.9469135403633118 127.0 43.0 1.0 1.0
3.7625024 -0.91226238 1.189762 -0.06887048482894897 -0.12429966777563095 -0.989851713180542 199.0 43.0 1.0 1.0
3.5839589 -0.83271116 1.2382843 -0.0806475505232811 -0.08393015712499619 -0.9932027459144592 255.0 44.0 1.0 1.0
3.5713577 -0.86940646 1.2369598 -0.12441763281822205 -0.01894550397992134 -0.992048978805542 255.0 44.0 1.0 1.0
3.3850965 -0.7898007 1.2742478 -0.124454565346241 -0.08094214648008347 -0.9889183640480042 255.0 45.0 1.0 1.0
3.3839357 -0.82709634 1.2769544 -0.13846246898174286 -0.08079060912132263 -0.9870668649673462 255.0 45.0 1.0 1.0
3.1907191 -0.74815184 1.3014603 -0.12444321066141129 0.011111968196928501 -0.9921645522117615 255.0 46.0 1.0 1.0
3.1971507 -0.78517842 1.3073202 -0.13182972371578217 0.011101280339062214 -0.9912102818489075 255.0 46.0 1.0 1.0
3.0363991 -0.71493369 1.3378834 -0.1250171959400177 -0.09794112294912338 -0.9873086810112 255.0 47.0 1.0 1.0
3.0073268 -0.74152911 1.3283838 -0.1811293512582779 -0.044086795300245285 -0.9824706315994263 255.0 47.0 1.0 1.0
3.0422614 -0.10146141 1.4087654 -0.10341199487447739 -0.07613816857337952 -0.9917201995849609 255.0 48.0 1.0 1.0
3.0301497 -0.13295645 1.4037282 -0.11881312727928162 -0.04345155134797096 -0.9919654130935669 253.0 48.0 1.0 1.0
2.8732438 -0.092811152 1.4286168 -0.1164059266448021 -0.06454464048147202 -0.9911022186279297 255.0 49.0 1.0 1.0
2.8792703 -0.12331994 1.4321777 -0.09297105669975281 -0.06470496207475662 -0.9935641884803772 255.0 49.0 1.0 1.0
2.7227352 -0.084614068 1.4505122 -0.1360955685377121 -0.027704337611794472 -0.9903082847595215 255.0 50.0 1.0 1.0
2.7252254 -0.11338945 1.4523934 -0.1360955685377121 -0.027704337611794472 -0.9903082847595215 255.0 50.0 1.0 1.0
2.5797465 -0.076103866 1.4700692 -0.14962466061115265 -0.08772324025630951 -0.9848436713218689 255.0 51.0 1.0 1.0
2.5649126 -0.10268325 1.4621549 -0.10122500360012054 -0.0882662981748581 -0.9909403324127197 253.0 51.0 1.0 1.0
2.4476063 -0.068775028 1.4898307 -0.09828563779592514 -0.06875176727771759 -0.9927805662155151 255.0 52.0 1.0 1.0
2.4365041 -0.094132721 1.4835976 -0.14804121851921082 -0.06832500547170639 -0.986618161201477 255.0 52.0 1.0 1.0
2.3159215 -0.061015408 1.5042063 -0.11747266352176666 -0.06818769872188568 -0.9907323122024536 255.0 53.0 1.0 1.0
2.3151529 -0.085389622 1.5042087 -0.0873984545469284 -0.037878621369600296 -0.9954530000686646 255.0 53.0 1.0 1.0
2.1877689 -0.053034276 1.5160382 -0.14091947674751282 -0.06288941204547882 -0.9880215525627136 255.0 54.0 1.0 1.0
2.1772308 -0.075726472 1.5092099 -0.14841094613075256 -0.06281983852386475 -0.9869285225868225 255.0 54.0 1.0 1.0
2.0923307 -0.046309952 1.5465364 -0.15361633896827698 -0.08021742105484009 -0.984869122505188 255.0 55.0 1.0 1.0
2.0692165 -0.067615107 1.5299056 -0.16006895899772644 -0.08013423532247543 -0.9838477373123169 255.0 55.0 1.0 1.0
1.9615196 -0.038249444 1.5467432 -0.11047099530696869 -0.05547291412949562 -0.9923300743103027 255.0 56.0 1.0 1.0
1.9578682 -0.058823001 1.5442706 -0.0926353707909584 -0.046516768634319305 -0.9946129322052002 255.0 56.0 1.0 1.0
1.8713771 -0.030896893 1.5752602 -0.1385572999715805 -0.11290322989225388 -0.9838977456092834 255.0 57.0 1.0 1.0
1.8525871 -0.050129279 1.5598156 -0.1453867405653 -0.0707082524895668 -0.986845076084137 255.0 57.0 1.0 1.0
1.7563251 -0.023437835 1.5796961 -0.13704010844230652 -0.08864603191614151 -0.9865910410881042 255.0 58.0 1.0 1.0
1.7589551 -0.042030152 1.582373 -0.1316957026720047 -0.06323704868555069 -0.9892711043357849 255.0 58.0 1.0 1.0
1.6582712 -0.015997775 1.5971278 -0.14604157209396362 -0.048441071063280106 -0.988091766834259 255.0 59.0 1.0 1.0
1.6522464 -0.033379354 1.5915844 -0.14604157209396362 -0.048441071063280106 -0.988091766834259 255.0 59.0 1.0 1.0
1.5620271 -0.0081877084 1.6144258 -0.17262956500053406 -0.04265947639942169 -0.9840626120567322 255.0 60.0 1.0 1.0
1.5395933 -0.024331039 1.5914428 -0.17262956500053406 -0.04265947639942169 -0.9840626120567322 250.0 60.0 1.0 1.0
1.4512151 6.9573609e-05 1.6139492 -0.10339966416358948 -0.05204903334379196 -0.9932771921157837 255.0 61.0 1.0 1.0
1.4484576 -0.015233587 1.6109803 -0.09375648200511932 -0.052099019289016724 -0.994231104850769 255.0 61.0 1.0 1.0
1.3656271 0.0080271186 1.6404457 -0.05851208046078682 -0.14203567802906036 -0.9881306886672974 255.0 62.0 1.0 1.0
1.3630724 -0.0063982331 1.6373775 -0.0763409435749054 -0.11455582082271576 -0.9904791116714478 255.0 62.0 1.0 1.0
1.2745849 0.016735217 1.6620035 -0.21151940524578094 -0.02703794278204441 -0.9769997000694275 255.0 63.0 1.0 1.0
1.2722509 0.0032431707 1.6588359 -0.17764708399772644 0.008167656138539314 -0.9840603470802307 255.0 63.0 1.0 1.0
7.1452408 -0.26193395 -1.3813442 -0.10615410655736923 -0.8941516876220703 -0.4349990487098694 85.0 24.0 2.0 5.0
10.951455 -0.51602536 -2.1176934 -0.05599985271692276 -0.903559684753418 -0.4247870147228241 11.0 24.0 2.0 5.0
10.924346 -0.40789008 -1.8188413 -0.008119138889014721 -0.9813877940177917 0.19186466932296753 15.0 25.0 2.0 5.0
10.939192 -0.52309436 -1.8221198 0.06324037164449692 -0.9481654763221741 0.31142091751098633 14.0 25.0 2.0 5.0
10.975464 -0.41361111 -1.5365623 0.01998850516974926 -0.9980703592300415 0.05878766253590584 18.0 26.0 2.0 5.0
11.014065 -0.53052497 -1.5426536 -0.03784429281949997 -0.9992473721504211 -0.008517051115632057 15.0 26.0 2.0 5.0
11.018868 -0.42100221 -1.255926 0.011678295210003853 -0.9996397495269775 -0.024166930466890335 18.0 27.0 2.0 5.0
10.974167 -0.53436226 -1.2513994 -0.008782821707427502 -0.9996694326400757 -0.02416764572262764 15.0 27.0 2.0 5.0
11.031387 -0.42531714 -0.970801 0.0022167174611240625 -0.9997411370277405 0.02264389768242836 16.0 28.0 2.0 5.0
11.018373 -0.54036963 -0.97009885 -0.06566999852657318 -0.9923739433288574 0.10431298613548279 17.0 28.0 2.0 5.0
11.044503 -0.42966571 -0.68673569 0.006457306910306215 -0.997566282749176 0.06942502409219742 18.0 29.0 2.0 5.0
11.103203 -0.54841459 -0.69069999 -0.010381294414401054 -0.9975325465202332 0.06943456828594208 19.0 29.0 2.0 5.0
11.10627 -0.4339917 -0.40602186 -0.029572902247309685 -0.9978906512260437 0.05778972804546356 14.0 30.0 2.0 5.0
11.10112 -0.55025798 -0.40602046 -0.0323786586523056 -0.9993076920509338 -0.018321700394153595 10.0 30.0 2.0 5.0
11.128898 -0.43680507 -0.12321632 0.021398108452558517 -0.9950134754180908 0.09741832315921783 9.0 31.0 2.0 5.0
11.127712 -0.55352688 -0.12325892 -0.026547927409410477 -0.9959754347801208 0.08560393750667572 9.0 31.0 2.0 5.0
1.2438501 -0.38515294 -1.6923094 0.14594672620296478 -0.018199874088168144 0.9891250729560852 255.0 0.0 1.0 1.0
1.2431265 -0.37081414 -1.6859502 0.19740702211856842 -0.07113092392683029 0.9777376055717468 255.0 0.0 1.0 1.0
1.3701195 -0.4142997 -1.7115591 0.17388491332530975 -0.012997249141335487 0.9846802949905396 255.0 1.0 1.0 1.0
1.3817736 -0.4021804 -1.7207346 0.1469738483428955 -0.01305498369038105 0.989054262638092 255.0 1.0 1.0 1.0
1.4850636 -0.44052261 -1.7152088 0.16933076083660126 -0.02697099559009075 0.9851900935173035 253.0 2.0 1.0 1.0
1.4947476 -0.42651927 -1.7211167 0.10706412047147751 -0.02720888890326023 0.9938797950744629 255.0 2.0 1.0 1.0
1.6354322 -0.47663873 -1.7512487 0.1503690779209137 -0.002769549610093236 0.9886261224746704 255.0 3.0 1.0 1.0
1.6322621 -0.45733646 -1.7426246 0.10147175192832947 -0.00278694205917418 0.9948345422744751 255.0 3.0 1.0 1.0
1.7679027 -0.50774491 -1.7618486 0.1434706598520279 0.03293837234377861 0.9891062378883362 255.0 4.0 1.0 1.0
1.7647548 -0.48700663 -1.7535237 0.1018698513507843 0.037453558295965195 0.9940924644470215 250.0 4.0 1.0 1.0
1.927124 -0.54637045 -1.7909659 0.11661069095134735 0.03822239860892296 0.9924419522285461 255.0 5.0 1.0 1.0
1.9125791 -0.52078867 -1.7722831 0.14130817353725433 0.031164834275841713 0.9894749522209167 253.0 5.0 1.0 1.0
2.0677612 -0.57940549 -1.7951862 0.09447034448385239 0.03400462865829468 0.9949467778205872 247.0 6.0 1.0 1.0
2.0826018 -0.5602181 -1.8028448 0.12360800802707672 0.012922655791044235 0.9922470450401306 250.0 6.0 1.0 1.0
2.2453029 -0.62297481 -1.8236066 0.10740042477846146 0.03673679754137993 0.9935368895530701 253.0 7.0 1.0 1.0
2.2456043 -0.59791869 -1.8186435 0.10635906457901001 0.04524463415145874 0.9932979345321655 255.0 7.0 1.0 1.0
2.4248395 -0.66702062 -1.8445691 0.12987276911735535 -0.0503082238137722 0.9902536273002625 247.0 8.0 1.0 1.0
2.4160829 -0.63759148 -1.8327096 0.15759851038455963 -0.014516209252178669 0.9873965978622437 241.0 8.0 1.0 1.0
2.6161103 -0.71340829 -1.864512 0.14594165980815887 0.05186598375439644 0.9879326820373535 235.0 9.0 1.0 1.0
2.6298084 -0.68775362 -1.8690012 0.12803620100021362 0.06748121976852417 0.9894710183143616 244.0 9.0 1.0 1.0
2.8613906 -0.7756086 -1.9102205 0.09028361737728119 0.09268926829099655 0.9915934801101685 241.0 10.0 1.0 1.0
2.8140061 -0.73135066 -1.8733666 0.15499408543109894 0.09194465726613998 0.9836274981498718 217.0 10.0 1.0 1.0
3.0743647 -0.82773829 -1.9214733 0.08986147493124008 -0.001567186671309173 0.9959530830383301 211.0 11.0 1.0 1.0
3.10939 -0.80245727 -1.9379511 0.14352238178253174 -0.0015572617994621396 0.9896458387374878 238.0 11.0 1.0 1.0
3.3538716 -0.89749557 -1.959527 0.1693785935640335 0.059568390250205994 0.9837492108345032 205.0 12.0 1.0 1.0
3.3529518 -0.8598513 -1.9535812 0.12228629738092422 0.05820808559656143 0.9907864928245544 208.0 12.0 1.0 1.0
3.6705472 -0.97758335 -2.0038676 0.11931559443473816 0.056819088757038116 0.9912292957305908 193.0 13.0 1.0 1.0
3.6702876 -0.93659317 -1.9982162 0.06801290810108185 0.012195706367492676 0.9976099133491516 193.0 13.0 1.0 1.0
4.0469775 -1.0734538 -2.0608361 0.07331705838441849 0.019072184339165688 0.9971263408660889 163.0 14.0 1.0 1.0
4.0371141 -1.0258429 -2.0501821 0.11288709193468094 0.04417269676923752 0.9926254153251648 151.0 14.0 1.0 1.0
4.4777684 -1.1828643 -2.1225681 0.06955721974372864 0.005714044906198978 0.9975615739822388 127.0 15.0 1.0 1.0
4.4757967 -1.1324754 -2.1158385 0.14781181514263153 0.0882367491722107 0.9850715398788452 127.0 15.0 1.0 1.0
4.012959 -0.24467765 -1.7138269 0.17596089839935303 -0.982211709022522 -0.0655580535531044 255.0 16.0 1.0 1.0
3.9932408 -0.20163287 -1.7044188 -0.00903891958296299 -0.9989978075027466 -0.04383700713515282 255.0 16.0 1.0 1.0
4.0428567 -0.25074968 -1.5979658 0.07779914140701294 -0.9621507525444031 0.2611767053604126 255.0 17.0 1.0 1.0
4.0415373 -0.208303 -1.5964962 0.07062789052724838 -0.9643059372901917 0.2551978826522827 255.0 17.0 1.0 1.0
4.2568197 -0.26922196 -1.550519 0.1104201003909111 -0.0033558993600308895 0.9938793182373047 178.0 18.0 1.0 1.0
4.154274 -0.21918532 -1.5122751 0.14635132253170013 0.05818980559706688 0.9875197410583496 139.0 18.0 1.0 1.0
4.432754 -0.28499871 -1.4812579 -0.37825143337249756 -0.6533387303352356 0.6558005809783936 226.0 19.0 1.0 1.0
4.450645 -0.23946445 -1.4863127 -0.4087384343147278 -0.8497682809829712 0.3329066038131714 238.0 19.0 1.0 1.0
4.4891882 -0.29256392 -1.3688382 -0.33982351422309875 -0.8708287477493286 0.35521435737609863 241.0 20.0 1.0 1.0
4.5111051 -0.24665971 -1.3746525 -0.14853498339653015 -0.9418686032295227 0.30136510729789734 253.0 20.0 1.0 1.0
4.5424619 -0.30002192 -1.2555572 -0.14942842721939087 -0.9102641344070435 0.38612210750579834 244.0 21.0 1.0 1.0
4.5491982 -0.25272134 -1.2566159 -0.08418707549571991 -0.9239519238471985 0.3731291890144348 255.0 21.0 1.0 1.0
4.60847 -0.30842578 -1.1438408 -0.1374519318342209 -0.8826693892478943 0.4494459927082062 253.0 22.0 1.0 1.0
4.6153169 -0.26043105 -1.1447972 -0.05720052123069763 -0.8903927206993103 0.4515848457813263 250.0 22.0 1.0 1.0
4.6597085 -0.31513107 -1.0286285 -0.40985485911369324 -0.8964839577674866 0.16833151876926422 169.0 23.0 1.0 1.0
