ply
format ascii 1.0
element vertex 430
property float x
property float y
property float z
property float nx
property float ny
property float nz
property float intensity
property float ring
property float return
property float label
end_header
4.6844101 -13.872204 -1.0777515 -0.9070008397102356 -0.40205860137939453 0.12529315054416656 178.0 29.0 1.0 1.0
4.8498259 -13.885827 -0.70606101 0.030551142990589142 -0.986082136631012 -0.16342775523662567 148.0 30.0 1.0 2.0
4.6977468 -13.916937 -0.70474458 -0.9200380444526672 -0.3556392192840576 0.16447165608406067 130.0 30.0 1.0 1.0
4.8472805 -13.883688 -0.33125609 0.011385448276996613 -0.879469096660614 -0.4758198857307434 109.0 31.0 1.0 6.0
4.6504931 -13.782117 -0.32732365 -0.011585015803575516 -0.9999295473098755 0.0025919382460415363 38.0 31.0 1.0 1.0
2.0091016 -13.006672 0.047941774 -0.14392529428005219 -0.0667731761932373 -0.9873332381248474 49.0 32.0 1.0 1.0
1.8875906 -13.129924 0.048776288 -0.08888295292854309 -0.04390339180827141 -0.9950739741325378 49.0 32.0 1.0 1.0
1.6734718 -10.852033 0.31924659 -0.1566384881734848 -0.06354805827140808 -0.9856095314025879 43.0 33.0 1.0 1.0
1.5637345 -10.896641 0.32042807 -0.1691589057445526 -0.11540629714727402 -0.9788087606430054 45.0 33.0 1.0 1.0
1.4396344 -9.3405294 0.51564991 -0.0291727464646101 -0.03222013637423515 -0.9990549087524414 39.0 34.0 1.0 1.0
1.343472 -9.3669205 0.51661718 -0.12511035799980164 -0.018052825704216957 -0.9919785857200623 40.0 34.0 1.0 1.0
1.2593803 -8.1657686 0.66224301 -0.1590147316455841 -0.05608526989817619 -0.9856818914413452 37.0 35.0 1.0 1.0
1.1789283 -8.2139893 0.66540307 -0.09976524859666824 -0.06033480912446976 -0.9931800365447998 36.0 35.0 1.0 1.0
1.1193447 -7.2699394 0.77897894 -0.1532847136259079 -0.04784727841615677 -0.9870229363441467 37.0 36.0 1.0 1.0
1.047137 -7.3087811 0.78218013 -0.1458655297756195 0.020254405215382576 -0.9890971183776855 40.0 36.0 1.0 1.0
1.0092607 -6.5659389 0.8768118 -0.18631352484226227 -0.06529518216848373 -0.9803181886672974 112.0 37.0 1.0 1.0
0.9455384 -6.6114311 0.88175625 -0.1552249789237976 0.12414737790822983 -0.9800472259521484 103.0 37.0 1.0 1.0
0.92310995 -6.0225725 0.9633745 -0.021731799468398094 -0.8187001943588257 -0.573809802532196 124.0 38.0 1.0 1.0
0.89512485 -6.2782617 1.0030499 -0.03983400762081146 -0.6474394202232361 -0.7610751390457153 181.0 38.0 1.0 1.0
0.87901062 -5.7514448 1.0740134 -0.07886345684528351 -0.2274552583694458 -0.9705898761749268 163.0 39.0 1.0 1.0
0.82375991 -5.7953267 1.0807571 -0.21791546046733856 -0.18808424472808838 -0.9576727747917175 199.0 39.0 1.0 1.0
0.80815631 -5.2966409 1.1331519 -0.09402385354042053 -0.016725769266486168 -0.9954294562339783 187.0 40.0 1.0 1.0
0.75434482 -5.3163791 1.1358173 -0.2515239715576172 -0.026607362553477287 -0.9674851894378662 187.0 40.0 1.0 1.0
0.74942672 -4.931448 1.1914139 -0.08266384154558182 -0.03520851209759712 -0.9959553480148315 223.0 41.0 1.0 1.0
0.69725472 -4.9351149 1.1906463 -0.1226661205291748 -0.12536819279193878 -0.9844977855682373 217.0 41.0 1.0 1.0
0.69302166 -4.5785809 1.2339079 -0.2311665415763855 0.0005335095338523388 -0.9729140996932983 235.0 42.0 1.0 1.0
0.64831722 -4.6084876 1.2402542 -0.1947944164276123 0.04722405970096588 -0.9797065258026123 232.0 42.0 1.0 1.0
0.64385909 -4.275887 1.275303 -0.10878728330135345 0.09837478399276733 -0.9891854524612427 235.0 43.0 1.0 1.0
0.57151985 -4.0847831 1.2164747 -0.018663302063941956 0.8218330144882202 -0.5694224834442139 136.0 43.0 1.0 1.0
0.5717243 -3.8162596 1.2496816 -0.06319846957921982 0.7526096105575562 -0.6554272174835205 193.0 44.0 1.0 1.0
0.53858787 -3.8709648 1.2658657 -0.1658678501844406 -0.04715725779533386 -0.9850198030471802 247.0 44.0 1.0 1.0
0.53534549 -3.5920527 1.2841697 -0.2857208251953125 -0.035145048052072525 -0.9576682448387146 232.0 45.0 1.0 1.0
0.503429 -3.6384811 1.2989897 -0.1560554951429367 -0.11374301463365555 -0.981177568435669 255.0 45.0 1.0 1.0
0.51418316 -3.4724367 1.3473809 -0.23477564752101898 -0.10867360234260559 -0.9659557938575745 255.0 46.0 1.0 1.0
0.47683752 -3.4701681 1.3446244 -0.2353878915309906 -0.08154319226741791 -0.9684747457504272 255.0 46.0 1.0 1.0
0.46840408 -3.1795692 1.3344792 -0.2835405170917511 -0.12268587946891785 -0.9510798454284668 235.0 47.0 1.0 1.0
0.44112569 -3.2281442 1.3530298 -0.2853323519229889 -0.050634946674108505 -0.9570901989936829 255.0 47.0 1.0 1.0
1.0108824 -2.8292634 1.3456873 -0.04052900895476341 -0.9354522824287415 -0.3511216640472412 244.0 48.0 1.0 1.0
1.0026928 -2.9017165 1.3752511 -0.0053548128344118595 -0.969134509563446 -0.2464744597673416 244.0 48.0 1.0 1.0
1.0022738 -2.7952375 1.4301795 -0.09653421491384506 -0.6646965146064758 -0.7408507466316223 255.0 49.0 1.0 1.0
0.97536838 -2.8123188 1.4337291 -0.1419169008731842 -0.16808441281318665 -0.9755035638809204 255.0 49.0 1.0 1.0
0.92921156 -2.6678815 1.4596311 -0.13312335312366486 -0.052373334765434265 -0.9897147417068481 255.0 50.0 1.0 1.0
0.91953295 -2.5406425 1.4946789 -0.1217966228723526 -0.01262982189655304 -0.9924747943878174 255.0 51.0 1.0 1.0
0.88139236 -2.5170403 1.4753478 -0.1217966228723526 -0.01262982189655304 -0.9924747943878174 253.0 51.0 1.0 1.0
0.86706424 -2.3844855 1.5004779 -0.12651380896568298 -0.05714460089802742 -0.9903175234794617 255.0 52.0 1.0 1.0
0.848957 -2.4128411 1.5127763 -0.12651380896568298 -0.05714460089802742 -0.9903175234794617 255.0 52.0 1.0 1.0
0.83162838 -2.2739456 1.5290312 -0.1002899557352066 -0.044303618371486664 -0.9939713478088379 255.0 53.0 1.0 1.0
0.80220437 -2.2665243 1.5183926 -0.1002899557352066 -0.044303618371486664 -0.9939713478088379 255.0 53.0 1.0 1.0
0.78949946 -2.1440797 1.5403373 -0.07868751138448715 0.01889025606215 -0.9967203736305237 255.0 54.0 1.0 1.0
0.76595849 -2.1490347 1.5381521 -0.09988055378198624 0.018853746354579926 -0.9948207139968872 255.0 54.0 1.0 1.0
0.75156003 -2.0272152 1.5554968 -0.16360999643802643 -0.011048097163438797 -0.9864631295204163 255.0 55.0 1.0 1.0
0.72926265 -2.0318468 1.5532084 -0.1914978176355362 0.03323494642972946 -0.9809302687644958 255.0 55.0 1.0 1.0
0.71642005 -1.9163097 1.5708797 -0.17698556184768677 0.31347644329071045 -0.9329569339752197 255.0 56.0 1.0 1.0
0.69530314 -1.9206518 1.5684882 -0.15113812685012817 0.2894194722175598 -0.9451950192451477 253.0 56.0 1.0 1.0
0.68131065 -1.8053356 1.5820948 -0.08218731731176376 0.8984816074371338 -0.4312494099140167 253.0 57.0 1.0 1.0
0.62323201 -1.7048869 1.4881712 -0.1809137761592865 0.07639534026384354 -0.980527400970459 208.0 57.0 1.0 1.0
0.61887395 -1.6244892 1.5230403 -0.12105181068181992 0.035961318761110306 -0.9919946193695068 253.0 58.0 1.0 1.0
0.60397285 -1.636449 1.5283599 -0.16698065400123596 -0.13207246363162994 -0.9770744442939758 255.0 58.0 1.0 1.0
0.59028643 -1.5318654 1.5402644 -0.13282722234725952 -0.08595026284456253 -0.9874054789543152 250.0 59.0 1.0 1.0
0.57835031 -1.5488106 1.5512643 -0.14549808204174042 -0.09876305609941483 -0.9844166040420532 255.0 59.0 1.0 1.0
0.56808746 -1.4538932 1.571539 -0.1564585119485855 -0.09484091401100159 -0.9831205010414124 255.0 60.0 1.0 1.0
0.54792005 -1.4465221 1.5573671 -0.1564585119485855 -0.09484091401100159 -0.9831205010414124 255.0 60.0 1.0 1.0
0.53437549 -1.3460714 1.5685625 -0.17067523300647736 -0.0610731802880764 -0.9834327101707458 255.0 61.0 1.0 1.0
0.52323347 -1.3591079 1.5774223 -0.14979244768619537 -0.030582940205931664 -0.988244354724884 255.0 61.0 1.0 1.0
0.51374388 -1.2720132 1.6042404 -0.13793806731700897 -0.06810048967599869 -0.9880967736244202 255.0 62.0 1.0 1.0
0.49668241 -1.2675785 1.5920974 -0.1457892507314682 -0.076072558760643 -0.9863865375518799 255.0 62.0 1.0 1.0
0.47938746 -1.1621962 1.5947677 -0.19409525394439697 -0.07404650002717972 -0.9781841039657593 255.0 63.0 1.0 1.0
0.46634167 -1.1647822 1.5916507 -0.19409525394439697 -0.07404650002717972 -0.9781841039657593 255.0 63.0 1.0 1.0
4.9468141 -14.048328 -3.4569683 -0.013486813753843307 -0.9902351498603821 0.138753280043602 14.0 23.0 2.0 5.0
4.9514103 -14.082139 -3.0601902 -0.0009460201254114509 -0.9846713542938232 -0.17441707849502563 11.0 24.0 2.0 5.0
0.086126827 -1.2336376 -1.6408193 0.20528891682624817 0.09469453990459442 0.9741095304489136 255.0 0.0 1.0 1.0
0.099472865 -1.2374207 -1.6472499 0.20620648562908173 0.009395509958267212 0.9784634709358215 255.0 0.0 1.0 1.0
0.10496753 -1.3640218 -1.6697435 0.12764832377433777 0.03380122408270836 0.9912433624267578 255.0 1.0 1.0 1.0
0.11820287 -1.3501627 -1.6543261 0.13568344712257385 0.04196701943874359 0.9898630976676941 255.0 1.0 1.0 1.0
0.12198209 -1.4757288 -1.673529 0.10614059120416641 0.024452492594718933 0.9940505027770996 255.0 2.0 1.0 1.0
0.13748102 -1.4743193 -1.6735806 0.10614781081676483 0.021497372537851334 0.9941179752349854 255.0 2.0 1.0 1.0
0.14039245 -1.5988588 -1.6842667 0.12744258344173431 0.06317569315433502 0.9898319244384766 255.0 3.0 1.0 1.0
0.15691212 -1.594502 -1.6814278 0.12744258344173431 0.06317569315433502 0.9898319244384766 255.0 3.0 1.0 1.0
0.16058953 -1.7446821 -1.7132668 0.09200648963451385 0.04096554219722748 0.9949154257774353 255.0 4.0 1.0 1.0
0.17832401 -1.7371594 -1.7077368 0.11540981382131577 0.07288727909326553 0.9906402230262756 255.0 4.0 1.0 1.0
0.17952006 -1.8749499 -1.7196578 0.09191877394914627 0.030012674629688263 0.9953141808509827 255.0 5.0 1.0 1.0
0.19795501 -1.8611587 -1.70894 0.11225450783967972 0.010429463349282742 0.9936246871948242 253.0 5.0 1.0 1.0
0.20141947 -2.0330076 -1.7444769 0.1287851780653 0.03005458228290081 0.9912169575691223 255.0 6.0 1.0 1.0
0.22308227 -2.0337582 -1.7471427 0.1287851780653 0.03005458228290081 0.9912169575691223 255.0 6.0 1.0 1.0
0.22179914 -2.1773343 -1.75025 0.15702028572559357 0.06128404289484024 0.9856920838356018 247.0 7.0 1.0 1.0
0.24394742 -2.168627 -1.7453312 0.10337582230567932 0.06809811294078827 0.992308497428894 235.0 7.0 1.0 1.0
0.24419066 -2.3413804 -1.7651265 0.13161341845989227 0.029777800664305687 0.9908537268638611 244.0 8.0 1.0 1.0
0.27020666 -2.3513632 -1.7747988 0.09829718619585037 -0.003980071749538183 0.9951491951942444 255.0 8.0 1.0 1.0
0.27063617 -2.5362329 -1.7938893 0.1236567571759224 0.07012658566236496 0.989844024181366 244.0 9.0 1.0 1.0
0.29875681 -2.5462074 -1.803174 0.1236567571759224 0.07012658566236496 0.989844024181366 247.0 9.0 1.0 1.0
0.29676089 -2.7373679 -1.815816 0.12834283709526062 0.05744863301515579 0.9900646209716797 244.0 10.0 1.0 1.0
0.32310605 -2.7141521 -1.8027055 0.11216094344854355 0.025033865123987198 0.9933746457099915 229.0 10.0 1.0 1.0
0.32321307 -2.9306111 -1.822524 0.1039387658238411 0.04748975485563278 0.993449330329895 214.0 11.0 1.0 1.0
0.35475644 -2.9337671 -1.8268267 0.10188423842191696 0.026850596070289612 0.9944338202476501 220.0 11.0 1.0 1.0
0.35775971 -3.1948807 -1.860016 0.1424788236618042 0.04119105637073517 0.9889404773712158 226.0 12.0 1.0 1.0
0.39251542 -3.2012141 -1.8661292 0.1422114223241806 0.019990619271993637 0.9896344542503357 226.0 12.0 1.0 1.0
0.39112774 -3.4517305 -1.8803914 0.15570475161075592 0.016218608245253563 0.9876705408096313 214.0 13.0 1.0 1.0
0.43033367 -3.4718301 -1.8938265 0.1325526088476181 0.04619069769978523 0.9900990724563599 220.0 13.0 1.0 1.0
0.43092397 -3.7646804 -1.9158344 0.14242826402187347 0.055763788521289825 0.9882330894470215 175.0 14.0 1.0 1.0
0.47171098 -3.77053 -1.9213717 0.14587965607643127 0.023238372057676315 0.9890294075012207 190.0 14.0 1.0 1.0
0.47807938 -4.1352062 -1.9621136 0.12063530087471008 0.03526630252599716 0.9920703172683716 175.0 15.0 1.0 1.0
0.52232373 -4.1370921 -1.9656612 0.08842676877975464 0.004007523879408836 0.9960745573043823 169.0 15.0 1.0 1.0
1.4952199 -4.6136751 -2.1327384 0.16256947815418243 0.07317361980676651 0.9839800000190735 118.0 16.0 1.0 1.0
1.5423558 -4.594224 -2.1312494 0.1429920494556427 0.07760056853294373 0.9866769313812256 121.0 16.0 1.0 1.0
1.6684359 -5.1656289 -2.2128296 0.10780470073223114 0.045834027230739594 0.9931150078773499 79.0 17.0 1.0 1.0
1.7213349 -5.1442895 -2.2114558 0.08486518263816833 0.007892617024481297 0.9963611960411072 52.0 17.0 1.0 1.0
1.8819101 -5.8499308 -2.3128867 0.1458810418844223 0.02177957072854042 0.9890624284744263 28.0 18.0 1.0 1.0
1.9372253 -5.812067 -2.306 0.13677337765693665 0.05156679078936577 0.9892592430114746 34.0 18.0 1.0 1.0
2.1701281 -6.7689867 -2.4599636 0.09876266866922379 0.044909827411174774 0.994097113609314 35.0 19.0 1.0 1.0
2.2421634 -6.7493978 -2.4614477 0.15371964871883392 0.10031893849372864 0.983008861541748 34.0 19.0 1.0 1.0
2.5238931 -7.894752 -2.6243091 0.05719529464840889 0.03444736823439598 0.9977685213088989 38.0 20.0 1.0 1.0
2.6173043 -7.9003854 -2.6353753 0.1092647984623909 0.06067126616835594 0.992159366607666 37.0 20.0 1.0 1.0
3.0219555 -9.479598 -2.8648508 0.09973405301570892 0.017410023137927055 0.9948618412017822 40.0 21.0 1.0 1.0
3.1018658 -9.3889341 -2.8474023 0.1302599459886551 0.08331125974655151 0.9879734516143799 38.0 21.0 1.0 1.0
3.6834183 -11.587461 -3.1562505 0.07503005117177963 0.07460330426692963 0.9943866729736328 24.0 22.0 1.0 1.0
4.1946945 -12.732298 -3.4799843 0.04844316840171814 0.003120759269222617 0.9988211393356323 18.0 22.0 1.0 1.0
4.3214984 -13.625131 -3.316484 -0.37382379174232483 0.04700775071978569 0.926307737827301 37.0 23.0 1.0 1.0
4.3813157 -13.327294 -3.2554007 -0.3464055359363556 -0.5074619650840759 0.7889776229858398 35.0 23.0 1.0 1.0
4.4106493 -13.928419 -2.9938419 0.010128790512681007 -0.999604344367981 0.02623928152024746 34.0 24.0 1.0 1.0
4.4757175 -13.63563 -2.941246 -0.8548568487167358 -0.3315849304199219 0.3990881145000458 184.0 24.0 1.0 1.0
4.4581194 -14.109401 -2.6342745 -0.041136980056762695 -0.9979465007781982 0.04909570887684822 55.0 25.0 1.0 1.0
4.4941831 -13.721277 -2.5708945 -0.8499622344970703 -0.4957519769668579 0.17830908298492432 130.0 25.0 1.0 1.0
4.4860859 -14.220674 -2.2584908 -0.03623953089118004 -0.9983305931091309 0.04497402906417847 13.0 26.0 1.0 1.0
4.5033197 -13.770614 -2.1948287 -0.32745248079299927 -0.9304477572441101 0.16444392502307892 43.0 26.0 1.0 1.0
4.5253344 -14.359415 -1.8877069 -0.03116655722260475 -0.9918201565742493 0.12377948313951492 25.0 27.0 1.0 1.0
4.5522809 -13.933896 -1.8383763 0.0897526815533638 -0.99537193775177 0.0343395359814167 52.0 27.0 1.0 1.0
4.556848 -14.48269 -1.508631 -0.13902683556079865 -0.9804098010063171 0.13952864706516266 52.0 28.0 1.0 1.0
4.587357 -14.063272 -1.4703065 -0.009113406762480736 -0.9993059039115906 0.03611920401453972 49.0 28.0 1.0 1.0
4.5306206 -14.404925 -1.1101828 -0.40468019247055054 -0.9058019518852234 0.1255253702402115 36.0 29.0 1.0 1.0
4.6218991 -14.174606 -1.0965122 -0.03892217576503754 -0.9954109787940979 0.08741868287324905 34.0 29.0 1.0 1.0
4.531219 -14.412468 -0.7235409 -0.275407612323761 -0.8138449192047119 0.5116710066795349 40.0 30.0 1.0 1.0
4.6707711 -14.330024 -0.72220433 -0.03568420559167862 -0.9987767338752747 0.03423072770237923 13.0 30.0 1.0 1.0
1.6332793 -13.337244 0.05072961 -0.3553387522697449 -0.0396905317902565 -0.9338945150375366 49.0 32.0 1.0 1.0
1.7601826 -13.224263 0.049905069 -0.3072068691253662 0.001227797707542777 -0.9516419172286987 50.0 32.0 1.0 1.0
1.356194 -11.097577 0.32654771 -0.06636503338813782 -0.020999863743782043 -0.9975744485855103 47.0 33.0 1.0 1.0
1.4559978 -10.959925 0.32253066 -0.1739533692598343 0.0017726150108501315 -0.9847522377967834 46.0 33.0 1.0 1.0
1.1679672 -9.5633802 0.52696985 -0.1505264937877655 0.09371700882911682 -0.9841539859771729 39.0 34.0 1.0 1.0
1.2527878 -9.4358377 0.52028632 -0.1942925602197647 -0.005959311034530401 -0.9809256196022034 41.0 34.0 1.0 1.0
1.0145286 -8.3000889 0.67134672 -0.12237823009490967 0.06861542910337448 -0.990108847618103 36.0 35.0 1.0 1.0
1.0945345 -8.2376671 0.66689235 -0.11159402132034302 -0.04276612401008606 -0.9928332567214966 37.0 35.0 1.0 1.0
0.89879608 -7.3684702 0.78712749 -0.12011003494262695 0.31877195835113525 -0.9401904344558716 38.0 36.0 1.0 1.0
0.97430164 -7.3468685 0.78561139 -0.13610444962978363 -0.09731137752532959 -0.9859036803245544 31.0 36.0 1.0 1.0
0.8519845 -6.9996696 0.93180615 -0.1042298749089241 -0.9695796966552734 -0.22147585451602936 160.0 37.0 1.0 1.0
0.89713299 -6.778131 0.90319926 -0.12564319372177124 -0.559971034526825 -0.8189299702644348 118.0 37.0 1.0 1.0
0.77260888 -6.3700056 1.0155791 -0.12465184181928635 -0.018129240721464157 -0.992034912109375 157.0 38.0 1.0 1.0
0.83458191 -6.3263674 1.009724 -0.2196018397808075 -0.6508669853210449 -0.7267373204231262 169.0 38.0 1.0 1.0
0.70470226 -5.8306823 1.0849704 -0.10394824296236038 -0.02774149738252163 -0.9941957592964172 178.0 39.0 1.0 1.0
0.76464885 -5.815239 1.0833182 -0.08668988943099976 0.011079664342105389 -0.9961737394332886 178.0 39.0 1.0 1.0
0.65045834 -5.3930149 1.1496248 -0.1774173229932785 -0.07338288426399231 -0.981395959854126 214.0 40.0 1.0 1.0
0.70023781 -5.3355274 1.1386536 -0.2138265073299408 -0.06694217771291733 -0.9745752811431885 172.0 40.0 1.0 1.0
0.56982315 -4.7476349 1.1426769 -0.19307702779769897 0.14330929517745972 -0.9706615209579468 35.0 41.0 1.0 1.0
0.64611691 -4.9459014 1.1919008 -0.2000272274017334 -0.13072873651981354 -0.9710299372673035 199.0 41.0 1.0 1.0
0.52892864 -4.429028 1.1890788 -0.05037205293774605 -0.02296614646911621 -0.9984664916992188 223.0 42.0 1.0 1.0
0.57124728 -4.3926473 1.1806698 -0.11666832119226456 0.1493658870458603 -0.9818750023841858 79.0 42.0 1.0 1.0
0.49318475 -4.1566434 1.2350332 -0.11491746455430984 -0.07628802955150604 -0.9904413819313049 241.0 43.0 1.0 1.0
0.53613949 -4.1475072 1.2337592 -0.18739205598831177 0.007265698164701462 -0.9822583198547363 253.0 43.0 1.0 1.0
0.45885494 -3.8925655 1.2699598 -0.2137475162744522 -0.03916698694229126 -0.9761034846305847 238.0 44.0 1.0 1.0
0.49856916 -3.8800621 1.2673582 -0.14324027299880981 -0.08350232988595963 -0.9861589670181274 238.0 44.0 1.0 1.0
0.43161267 -3.6855044 1.3127223 -0.1199013739824295 -0.01647787168622017 -0.9926490187644958 255.0 45.0 1.0 1.0
0.46631414 -3.6509273 1.3019054 -0.15136848390102386 -0.1226717084646225 -0.9808359742164612 255.0 45.0 1.0 1.0
0.40546709 -3.4903464 1.3492838 -0.37395045161247253 -0.015531576238572598 -0.9273186922073364 253.0 46.0 1.0 1.0
0.44427839 -3.5044923 1.3563489 -0.21479637920856476 -0.09715703129768372 -0.9718142747879028 255.0 46.0 1.0 1.0
0.37522861 -3.2511761 1.3595058 -0.15873585641384125 -0.09940799325704575 -0.9823039174079895 255.0 47.0 1.0 1.0
0.40965486 -3.2507982 1.3609334 -0.2712728679180145 -0.03697609528899193 -0.9617919325828552 255.0 47.0 1.0 1.0
0.96977687 -3.0087299 1.4164859 -0.04611044004559517 -0.11152774095535278 -0.9926909804344177 255.0 48.0 1.0 1.0
0.99655068 -2.9846318 1.4098532 -0.018341507762670517 -0.8106939792633057 -0.5851828455924988 250.0 48.0 1.0 1.0
0.92191225 -2.8490784 1.4426852 -0.14377087354660034 -0.05193328112363815 -0.9882473349571228 255.0 49.0 1.0 1.0
0.9482035 -2.8290899 1.4373937 -0.1419169008731842 -0.16808441281318665 -0.9755035638809204 255.0 49.0 1.0 1.0
0.87544399 -2.6933231 1.4635577 -0.19805225729942322 -0.006004746537655592 -0.9801729917526245 255.0 50.0 1.0 1.0
0.9001413 -2.6739774 1.4579692 -0.17496956884860992 -0.019736869260668755 -0.9843760132789612 255.0 50.0 1.0 1.0
0.83185595 -2.5447323 1.4814017 -0.1525052934885025 -0.03436938673257828 -0.9877048134803772 255.0 51.0 1.0 1.0
0.85951585 -2.5392659 1.4832755 -0.1525052934885025 -0.03436938673257828 -0.9877048134803772 255.0 51.0 1.0 1.0
0.79728091 -2.4266279 1.5109613 -0.14462745189666748 -0.027240706607699394 -0.9891111254692078 255.0 52.0 1.0 1.0
0.82147688 -2.4149594 1.5088588 -0.14318546652793884 -0.05060649663209915 -0.9884011745452881 255.0 52.0 1.0 1.0
0.75997156 -2.2986798 1.5293025 -0.10390429198741913 -0.05389975383877754 -0.9931257367134094 255.0 53.0 1.0 1.0
0.78065717 -2.2810733 1.522825 -0.10037964582443237 -0.013306548818945885 -0.9948601722717285 255.0 53.0 1.0 1.0
0.72298777 -2.1706984 1.5428337 -0.19544105231761932 0.012455791234970093 -0.9806363582611084 255.0 54.0 1.0 1.0
0.74345613 -2.1568139 1.5382985 -0.09953290969133377 -0.08545289188623428 -0.9913581609725952 255.0 54.0 1.0 1.0
0.69387579 -2.0680106 1.569779 -0.02758161537349224 0.6801823377609253 -0.7325237989425659 255.0 55.0 1.0 1.0
0.7111764 -2.0484433 1.5603671 -0.18646866083145142 0.2299603968858719 -0.9551689028739929 255.0 55.0 1.0 1.0
0.61544526 -1.8174877 1.4735148 0.00793841015547514 0.12251907587051392 -0.9924343824386597 211.0 56.0 1.0 1.0
0.67310095 -1.921718 1.5637412 -0.01377115398645401 0.7858574390411377 -0.6182543635368347 250.0 56.0 1.0 1.0
0.59947836 -1.7524673 1.5188136 -0.18028423190116882 -0.11288487166166306 -0.9771154522895813 255.0 57.0 1.0 1.0
0.61464483 -1.7374243 1.5111496 -0.1809137761592865 0.07639534026384354 -0.980527400970459 255.0 57.0 1.0 1.0
0.57065338 -1.651387 1.5311568 -0.14681172370910645 -0.11169764399528503 -0.9828376770019531 255.0 58.0 1.0 1.0
0.58784997 -1.6453929 1.5311152 -0.14681172370910645 -0.11169764399528503 -0.9828376770019531 255.0 58.0 1.0 1.0
0.54685187 -1.563139 1.5541544 -0.13539522886276245 -0.03732624650001526 -0.9900882840156555 255.0 59.0 1.0 1.0
0.56411445 -1.5601401 1.5568559 -0.1461113691329956 -0.037268854677677155 -0.9885659217834473 255.0 59.0 1.0 1.0
0.52231199 -1.4707513 1.571716 -0.17319461703300476 -0.054475005716085434 -0.9833800196647644 255.0 60.0 1.0 1.0
0.53277743 -1.4520577 1.557471 -0.1564585119485855 -0.09484091401100159 -0.9831205010414124 255.0 60.0 1.0 1.0
0.49292064 -1.3644733 1.5716696 -0.14979244768619537 -0.030582940205931664 -0.988244354724884 255.0 61.0 1.0 1.0
0.50522488 -1.3542321 1.565751 -0.14979244768619537 -0.030582940205931664 -0.988244354724884 253.0 61.0 1.0 1.0
0.47281384 -1.2848139 1.6013523 -0.13017424941062927 -0.05581168457865715 -0.9899190664291382 255.0 62.0 1.0 1.0
0.48249432 -1.2701589 1.589147 -0.13017424941062927 -0.05581168457865715 -0.9899190664291382 255.0 62.0 1.0 1.0
0.44629315 -1.1856664 1.6074895 -0.15616649389266968 -0.12562566995620728 -0.979709267616272 255.0 63.0 1.0 1.0
0.46040377 -1.1856128 1.6137502 -0.15731042623519897 -0.036193784326314926 -0.9868857264518738 255.0 63.0 1.0 1.0
4.4497776 -13.469784 -4.0837417 0.154401034116745 0.08302014321088791 0.984514057636261 8.0 21.0 2.0 1.0
0.060337227 -1.23771 -1.6438737 0.1578700989484787 0.07282145321369171 0.9847710132598877 255.0 0.0 1.0 1.0
0.073205769 -1.2345561 -1.6407249 0.20528891682624817 0.09469453990459442 0.9741095304489136 255.0 0.0 1.0 1.0
0.075771809 -1.355925 -1.6572214 0.12764373421669006 0.0348457396030426 0.9912077784538269 255.0 1.0 1.0 1.0
0.090184025 -1.3575383 -1.6603626 0.12764832377433777 0.03380122408270836 0.9912433624267578 255.0 1.0 1.0 1.0
0.091001295 -1.4780955 -1.6733673 0.12474740296602249 0.043289925903081894 0.9912437200546265 255.0 2.0 1.0 1.0
0.10728133 -1.4875928 -1.6853968 0.10614059120416641 0.024452492594718933 0.9940505027770996 255.0 2.0 1.0 1.0
0.10719384 -1.6070954 -1.6898817 0.10106117278337479 0.06131748482584953 0.9929888844490051 255.0 3.0 1.0 1.0
0.12385878 -1.6030805 -1.6870441 0.10118373483419418 0.036633629351854324 0.9941930770874023 255.0 3.0 1.0 1.0
0.12376922 -1.7449474 -1.7102848 0.1009787917137146 0.05000370740890503 0.9936312437057495 255.0 4.0 1.0 1.0
0.14254914 -1.749208 -1.7159362 0.09200648963451385 0.04096554219722748 0.9949154257774353 255.0 4.0 1.0 1.0
0.13886048 -1.8607526 -1.7032869 0.12938635051250458 0.11532699316740036 0.9848648309707642 253.0 5.0 1.0 1.0
0.16013463 -1.8797598 -1.7222193 0.09191877394914627 0.030012674629688263 0.9953141808509827 255.0 5.0 1.0 1.0
0.15734598 -2.0187156 -1.7286885 0.10937318950891495 0.040698178112506866 0.9931672811508179 255.0 6.0 1.0 1.0
0.17799784 -2.0108409 -1.7235675 0.10937318950891495 0.040698178112506866 0.9931672811508179 250.0 6.0 1.0 1.0
0.17486009 -2.1660669 -1.7375401 0.1586691439151764 0.0707034170627594 0.9847970008850098 232.0 7.0 1.0 1.0
0.20069492 -2.1983023 -1.765076 0.15702028572559357 0.06128404289484024 0.9856920838356018 255.0 7.0 1.0 1.0
0.19400629 -2.3333609 -1.7552918 0.11294449865818024 0.04305628687143326 0.9926679134368896 250.0 8.0 1.0 1.0
0.21997103 -2.3470871 -1.7673615 0.13142041862010956 0.06176231428980827 0.9894008040428162 255.0 8.0 1.0 1.0
0.21658933 -2.5317066 -1.7867295 0.10795988887548447 0.04399612545967102 0.9931812286376953 244.0 9.0 1.0 1.0
0.24376857 -2.5357614 -1.7914155 0.11078839004039764 0.008476611226797104 0.9938079118728638 250.0 9.0 1.0 1.0
0.23788486 -2.7264905 -1.8045336 0.09953860938549042 0.04713299125432968 0.9939168095588684 235.0 10.0 1.0 1.0
0.26809913 -2.7404184 -1.8156291 0.10449797660112381 0.05761054903268814 0.9928550720214844 235.0 10.0 1.0 1.0
0.26203251 -2.9402764 -1.824325 0.09852205216884613 0.048727795481681824 0.9939411282539368 223.0 11.0 1.0 1.0
0.29421103 -2.9508624 -1.8328316 0.10482899844646454 0.05508371815085411 0.9929635524749756 235.0 11.0 1.0 1.0
0.28917757 -3.1845775 -1.8496848 0.1055116355419159 0.043091680854558945 0.9934839606285095 223.0 12.0 1.0 1.0
0.32326466 -3.1882091 -1.8537971 0.129376620054245 0.04697009176015854 0.9904823899269104 226.0 12.0 1.0 1.0
0.31936538 -3.466326 -1.8838459 0.11759969592094421 0.010926000773906708 0.9930009841918945 217.0 13.0 1.0 1.0
0.35534701 -3.4592328 -1.8820626 0.1485123634338379 0.05991790443658829 0.9870936870574951 217.0 13.0 1.0 1.0
0.35129702 -3.7659252 -1.911849 0.15562047064304352 0.03240319713950157 0.9872852563858032 190.0 14.0 1.0 1.0
0.39003882 -3.7548773 -1.9083722 0.14174577593803406 0.027779370546340942 0.9895132780075073 184.0 14.0 1.0 1.0
0.38998929 -4.1300597 -1.9548842 0.10454702377319336 0.021921595558524132 0.9942783117294312 172.0 15.0 1.0 1.0
0.43478724 -4.1400852 -1.9618405 0.12486331164836884 0.05959814786911011 0.9903823733329773 184.0 15.0 1.0 1.0
1.3876905 -4.6090713 -2.1162345 0.1112133041024208 0.05889255926012993 0.9920501112937927 124.0 16.0 1.0 1.0
1.442499 -4.6151943 -2.1260095 0.13350465893745422 0.05142601579427719 0.9897131323814392 130.0 16.0 1.0 1.0
1.5439056 -5.1463785 -2.189738 0.12625275552272797 0.035287439823150635 0.9913702607154846 61.0 17.0 1.0 1.0
1.6043898 -5.1510816 -2.1989262 0.14450624585151672 0.053814396262168884 0.988039493560791 76.0 17.0 1.0 1.0
1.7354003 -5.8093085 -2.2813952 0.08694367855787277 0.05309223383665085 0.9947974681854248 34.0 18.0 1.0 1.0
1.8095158 -5.8336582 -2.2984419 0.0703728124499321 0.02522377297282219 0.9972017407417297 34.0 18.0 1.0 1.0
2.0095499 -6.7515392 -2.4371419 0.06784025579690933 0.02959577739238739 0.9972570538520813 34.0 19.0 1.0 1.0
2.0902636 -6.7625542 -2.4490848 0.04529407620429993 0.05100387707352638 0.9976708292961121 34.0 19.0 1.0 1.0
2.3341355 -7.8656392 -2.597069 0.0915060043334961 0.03549898415803909 0.9951715469360352 37.0 20.0 1.0 1.0
2.4389172 -7.9135747 -2.6214054 0.09989623725414276 0.012613413855433464 0.9949178695678711 36.0 20.0 1.0 1.0
2.7715271 -9.3677692 -2.812043 0.1755124032497406 -0.015354548580944538 0.9843574166297913 39.0 21.0 1.0 1.0
2.893271 -9.4153061 -2.8355148 0.1212671622633934 -0.012009506113827229 0.9925472736358643 38.0 21.0 1.0 1.0
4.147408 -14.061445 -3.8038216 0.1689082682132721 0.0625813901424408 0.9836429953575134 11.0 22.0 1.0 1.0
4.1320219 -14.041864 -3.3947551 -0.8182514309883118 0.5747249126434326 0.012485488317906857 136.0 23.0 1.0 1.0
4.3529787 -14.239935 -3.4538429 -0.03001757524907589 -0.9882473349571228 0.14988671243190765 43.0 23.0 1.0 1.0
4.1390185 -14.089392 -3.0078499 -0.9327031970024109 0.35748839378356934 0.047610267996788025 181.0 24.0 1.0 1.0
4.3436146 -14.232582 -3.0483365 -0.2618488073348999 -0.9581859707832336 0.1153898760676384 36.0 24.0 1.0 1.0
4.1417918 -14.131822 -2.6204247 -0.8947102427482605 0.43563854694366455 0.09855175763368607 208.0 25.0 1.0 1.0
4.3240447 -14.200613 -2.641813 0.0 0.0 0.0 16.0 25.0 1.0 0.0
4.1418524 -14.156011 -2.2327137 -0.9733392596244812 0.2263072282075882 0.03736204653978348 199.0 26.0 1.0 1.0
4.3232889 -14.221529 -2.2504418 -0.6828222870826721 0.729839026927948 0.03299605846405029 91.0 26.0 1.0 1.0
4.1491451 -14.195889 -1.8531612 -0.9746628999710083 0.19124706089496613 0.11600308120250702 202.0 27.0 1.0 1.0
4.3241529 -14.238954 -1.8649698 -0.833227813243866 0.5494850277900696 0.06162595748901367 148.0 27.0 1.0 1.0
4.1478949 -14.215814 -1.4702644 -0.9907596111297607 0.09370678663253784 0.09805314987897873 205.0 28.0 1.0 1.0
4.3277531 -14.274408 -1.4813035 -0.8757545351982117 0.4780600666999817 0.06717518717050552 169.0 28.0 1.0 1.0
4.1655636 -14.282205 -1.0925409 -0.9946004748344421 0.050935838371515274 0.09041795134544373 214.0 29.0 1.0 1.0
4.3357444 -14.306495 -1.0981896 -0.8607689738273621 0.4990830719470978 0.09996407479047775 193.0 29.0 1.0 1.0
4.1726565 -14.312395 -0.71274966 -0.9774485230445862 0.0013050357811152935 0.21116970479488373 205.0 30.0 1.0 1.0
4.3396902 -14.325262 -0.71599281 -0.9309684634208679 0.3577786684036255 0.07274811714887619 190.0 30.0 1.0 1.0
4.1580009 -14.26798 -0.33188406 -0.5865700840950012 -0.14332795143127441 -0.7971152067184448 118.0 31.0 1.0 1.0
4.2399764 -14.001665 -0.32712385 -0.26904574036598206 -0.06736741214990616 -0.960768461227417 43.0 31.0 1.0 1.0
1.3735242 -13.563472 0.052821167 -0.07239241153001785 -0.032696451991796494 -0.9968401193618774 48.0 32.0 1.0 1.0
1.4945863 -13.361526 0.051602244 -0.4187759459018707 -0.07995488494634628 -0.904562771320343 48.0 32.0 1.0 1.0
1.1489447 -11.374084 0.33506876 -0.2137073129415512 -0.06003406643867493 -0.9750513434410095 48.0 33.0 1.0 1.0
1.2542328 -11.238273 0.331025 -0.10481619089841843 -0.053173311054706573 -0.9930691123008728 49.0 33.0 1.0 1.0
0.97880626 -9.6969118 0.53406167 -0.05310611054301262 -0.027575787156820297 -0.9982080459594727 40.0 34.0 1.0 1.0
1.0700977 -9.5948677 0.52867663 -0.12084763497114182 -0.05095326155424118 -0.991362452507019 39.0 34.0 1.0 1.0
0.86784929 -8.5891552 0.69403958 -0.09343703091144562 0.17442823946475983 -0.9802266359329224 37.0 35.0 1.0 1.0
0.9404822 -8.4250994 0.68120378 -0.12060423940420151 -0.09282807260751724 -0.9883509278297424 37.0 35.0 1.0 1.0
0.79102492 -7.8485866 0.83741248 -0.27257096767425537 -0.6824499368667603 -0.6782087683677673 67.0 36.0 1.0 1.0
0.86213928 -7.7410898 0.82655889 -0.10619738698005676 -0.8325968384742737 -0.543603241443634 94.0 36.0 1.0 1.0
0.70931333 -7.0552974 0.93775326 -0.027248293161392212 0.15692225098609924 -0.9872350096702576 100.0 37.0 1.0 1.0
0.7804895 -7.0238857 0.93435866 0.006734457798302174 -0.1619768589735031 -0.9867715835571289 130.0 37.0 1.0 1.0
0.64506954 -6.4436111 1.0256169 -0.028825633227825165 -0.0668475478887558 -0.9973467588424683 169.0 38.0 1.0 1.0
0.70638931 -6.3815823 1.0166168 -0.10549088567495346 -0.059806764125823975 -0.9926201701164246 136.0 38.0 1.0 1.0
0.56661278 -5.6835518 1.0556644 -0.14131787419319153 -0.11918149143457413 -0.9827640056610107 37.0 39.0 1.0 1.0
0.64756668 -5.8728328 1.0919058 -0.0754004418849945 -0.08265013247728348 -0.9937222003936768 178.0 39.0 1.0 1.0
0.51394045 -5.1677842 1.0994976 -0.1503860205411911 0.22600607573986053 -0.9624475836753845 193.0 40.0 1.0 1.0
0.56797832 -5.1621742 1.0993217 -0.49596890807151794 0.4683065116405487 -0.7312344908714294 36.0 40.0 1.0 1.0
0.47459638 -4.8009572 1.1534044 -0.30593669414520264 -0.12336257845163345 -0.9440256357192993 181.0 41.0 1.0 1.0
0.51972669 -4.7493787 1.1420553 -0.3114849925041199 0.3802407681941986 -0.8708582520484924 139.0 41.0 1.0 1.0
0.43693501 -4.4466701 1.191587 -0.17167432606220245 -0.06573089212179184 -0.9829584956169128 202.0 42.0 1.0 1.0
0.48050389 -4.4150171 1.1842052 -0.14230503141880035 -0.08837859332561493 -0.9858694672584534 202.0 42.0 1.0 1.0
0.40689045 -4.1735353 1.2377188 -0.1876523792743683 -0.05523240566253662 -0.9806813597679138 232.0 43.0 1.0 1.0
0.45051882 -4.169106 1.2375765 -0.1400737166404724 -0.06028928607702255 -0.9883038401603699 247.0 43.0 1.0 1.0
0.37699035 -3.8973718 1.2691149 -0.10896056890487671 -0.08067411184310913 -0.9907669425010681 223.0 44.0 1.0 1.0
0.42096522 -3.9235337 1.2788678 -0.10893173515796661 -0.08387037366628647 -0.9905047416687012 253.0 44.0 1.0 1.0
0.3519423 -3.6672983 1.3037339 -0.10794267058372498 -0.04731668904423714 -0.9930304288864136 241.0 45.0 1.0 1.0
0.39026922 -3.6634748 1.3036087 -0.11241701990365982 -0.06078686937689781 -0.99180006980896 238.0 45.0 1.0 1.0
0.33627224 -3.5387814 1.3654435 -0.34601661562919617 -0.06360530853271484 -0.936069905757904 255.0 46.0 1.0 1.0
0.37129828 -3.5165689 1.3581381 -0.35303831100463867 -0.05950559675693512 -0.9337146282196045 255.0 46.0 1.0 1.0
0.30682954 -3.2544737 1.3582977 -0.15679849684238434 -0.08274426311254501 -0.9841583371162415 253.0 47.0 1.0 1.0
0.34045112 -3.2474744 1.3566488 -0.15873585641384125 -0.09940799325704575 -0.9823039174079895 255.0 47.0 1.0 1.0
0.91085184 -3.0421782 1.4233205 -0.13241976499557495 -0.003692456753924489 -0.9911868572235107 255.0 48.0 1.0 1.0
0.93177849 -2.9976935 1.4068506 -0.12366250157356262 0.0052107879891991615 -0.9923105835914612 244.0 48.0 1.0 1.0
0.86112243 -2.8641245 1.4412104 -0.08221077173948288 -0.061572108417749405 -0.99471116065979 255.0 49.0 1.0 1.0
0.89636654 -2.8722119 1.4498312 -0.15141616761684418 0.045518361032009125 -0.9874215126037598 255.0 49.0 1.0 1.0
0.82409167 -2.7278798 1.4730082 -0.07191719114780426 -0.05122428759932518 -0.9960943460464478 255.0 50.0 1.0 1.0
0.849365 -2.7090013 1.4674163 -0.07200457900762558 -0.014088240452110767 -0.9973047375679016 255.0 50.0 1.0 1.0
0.78560609 -2.5848358 1.4952207 -0.13648763298988342 -0.04194064438343048 -0.9897536039352417 255.0 51.0 1.0 1.0
0.81046599 -2.5698647 1.4912721 -0.1521000862121582 -0.08050914853811264 -0.9850805997848511 255.0 51.0 1.0 1.0
0.74639976 -2.4426007 1.5111887 -0.08521080762147903 -0.08364245295524597 -0.992845892906189 255.0 52.0 1.0 1.0
0.76668024 -2.4183207 1.5009239 -0.08545670658349991 -0.03544919192790985 -0.9957109689712524 255.0 52.0 1.0 1.0
0.71276969 -2.3171284 1.5316584 -0.09161321818828583 0.1345536857843399 -0.9866622686386108 255.0 53.0 1.0 1.0
0.73590469 -2.3063889 1.5294577 -0.09231925755739212 -0.05396199971437454 -0.9942662119865417 255.0 53.0 1.0 1.0
0.67944109 -2.1915004 1.5475185 0.09143595397472382 0.3061089813709259 -0.9475952386856079 255.0 54.0 1.0 1.0
0.69823509 -2.1717162 1.538501 -0.1745668202638626 0.44980883598327637 -0.8758986592292786 255.0 54.0 1.0 1.0
0.61864185 -1.9796968 1.4927504 -0.16804581880569458 0.0427231527864933 -0.9848529100418091 235.0 55.0 1.0 1.0
0.66523618 -2.053432 1.5535399 -0.13976934552192688 0.7018303871154785 -0.6984973549842834 255.0 55.0 1.0 1.0
0.58687347 -1.8600227 1.49809 0.016480011865496635 -0.14054939150810242 -0.9899365305900574 255.0 56.0 1.0 1.0
0.60232055 -1.8417933 1.4882814 0.012792419642210007 0.1272977739572525 -0.9917820692062378 244.0 56.0 1.0 1.0
0.56087554 -1.7585588 1.5139011 -0.1892663538455963 -0.12183083593845367 -0.9743384718894958 253.0 57.0 1.0 1.0
0.57629216 -1.7438567 1.5062352 -0.18947280943393707 -0.11266061663627625 -0.9754012823104858 253.0 57.0 1.0 1.0
0.53512728 -1.6599239 1.5286758 -0.14708495140075684 -0.093793585896492 -0.9846668839454651 250.0 58.0 1.0 1.0
0.55526704 -1.662853 1.536553 -0.14708495140075684 -0.093793585896492 -0.9846668839454651 255.0 58.0 1.0 1.0
0.51139128 -1.5657459 1.5460825 -0.13518498837947845 -0.06702404469251633 -0.9885509014129639 255.0 59.0 1.0 1.0
0.52769458 -1.560377 1.5460423 -0.13518498837947845 -0.06702404469251633 -0.9885509014129639 253.0 59.0 1.0 1.0
0.48972964 -1.4758283 1.566175 -0.16784220933914185 -0.058413393795490265 -0.9840816855430603 255.0 60.0 1.0 1.0
0.504179 -1.468029 1.5632955 -0.17319461703300476 -0.054475005716085434 -0.9833800196647644 255.0 60.0 1.0 1.0
0.46866718 -1.3871388 1.5865171 -0.1497269719839096 -0.042527735233306885 -0.987812340259552 255.0 61.0 1.0 1.0
0.47328532 -1.3540891 1.554112 -0.1497269719839096 -0.042527735233306885 -0.987812340259552 244.0 61.0 1.0 1.0
0.43915552 -1.2746027 1.5771284 -0.13030721247196198 -0.0328218936920166 -0.9909301400184631 255.0 62.0 1.0 1.0
0.45675927 -1.2822342 1.5923152 -0.13017424941062927 -0.05581168457865715 -0.9899190664291382 255.0 62.0 1.0 1.0
0.42310742 -1.1992183 1.6138967 -0.2219296246767044 -0.028806699439883232 -0.9746370315551758 255.0 63.0 1.0 1.0
0.43303996 -1.1878279 1.6044326 -0.10219190269708633 -0.1265202909708023 -0.986686110496521 255.0 63.0 1.0 1.0
0.034483038 -1.2436523 -1.6501198 0.15814103186130524 0.04342794418334961 0.9864610433578491 255.0 0.0 1.0 1.0
0.047196168 -1.2335429 -1.6373934 0.15814103186130524 0.04342794418334961 0.9864610433578491 255.0 0.0 1.0 1.0
0.047396753 -1.3598839 -1.6601629 0.13200028240680695 0.039271220564842224 0.9904714822769165 255.0 1.0 1.0 1.0
0.061347019 -1.3516601 -1.6509346 0.13200028240680695 0.039271220564842224 0.9904714822769165 255.0 1.0 1.0 1.0
0.059768621 -1.4745115 -1.6672168 0.1240881159901619 0.06512467563152313 0.9901318550109863 255.0 2.0 1.0 1.0
0.07539051 -1.4764038 -1.6702641 0.12459518760442734 0.06563755124807358 0.990034282207489 255.0 2.0 1.0 1.0
0.072971605 -1.5980901 -1.6781313 0.08712141960859299 0.039644964039325714 0.9954085350036621 255.0 3.0 1.0 1.0
0.089295566 -1.5889167 -1.6695068 0.08709252625703812 0.047265179455280304 0.9950783252716064 255.0 3.0 1.0 1.0
0.08616855 -1.7272868 -1.6905345 0.102149598300457 0.04673042893409729 0.9936708807945251 255.0 4.0 1.0 1.0
0.10464496 -1.7319522 -1.6961857 0.10100021958351135 0.045571502298116684 0.9938421845436096 255.0 4.0 1.0 1.0
0.099973932 -1.8663422 -1.7057828 0.13333453238010406 0.0768599659204483 0.9880863428115845 250.0 5.0 1.0 1.0
0.12012667 -1.873991 -1.7139344 0.12938635051250458 0.11532699316740036 0.9848648309707642 255.0 5.0 1.0 1.0
0.11516298 -2.0247469 -1.7310698 0.10455183684825897 0.03737206757068634 0.9938169717788696 255.0 6.0 1.0 1.0
0.13620999 -2.0203407 -1.7285461 0.1200421005487442 0.07067474722862244 0.9902498722076416 253.0 6.0 1.0 1.0
0.12941785 -2.1693947 -1.737312 0.1197097897529602 0.012488722801208496 0.9927303791046143 247.0 7.0 1.0 1.0
0.15326729 -2.1834581 -1.7498693 0.1197097897529602 0.012488722801208496 0.9927303791046143 253.0 7.0 1.0 1.0
0.14643481 -2.3594263 -1.7718291 0.09441802650690079 0.011816559359431267 0.9954624772071838 255.0 8.0 1.0 1.0
0.17003785 -2.3417413 -1.759925 0.09438062459230423 0.030521264299750328 0.9950682520866394 255.0 8.0 1.0 1.0
0.16306496 -2.529299 -1.7818687 0.10908941179513931 0.07086457312107086 0.9915027618408203 247.0 9.0 1.0 1.0
0.18935372 -2.5241342 -1.7796588 0.12993267178535461 0.04387962445616722 0.9905513525009155 238.0 9.0 1.0 1.0
0.18047735 -2.7276881 -1.8020519 0.10783498734235764 0.09586170315742493 0.9895363450050354 235.0 10.0 1.0 1.0
0.20883325 -2.7222621 -1.7999477 0.08748815953731537 -0.00014844027464278042 0.9961656332015991 232.0 10.0 1.0 1.0
0.19967458 -2.9350793 -1.8177202 0.11507551372051239 0.028441285714507103 0.9929494857788086 229.0 11.0 1.0 1.0
0.23045509 -2.9327717 -1.8178232 0.09189414978027344 0.030409881845116615 0.9953044056892395 226.0 11.0 1.0 1.0
0.22310723 -3.2004521 -1.8553617 0.13060957193374634 0.045236628502607346 0.9904012680053711 235.0 12.0 1.0 1.0
0.25611576 -3.1909781 -1.8514719 0.09654195606708527 0.010749287903308868 0.9952707886695862 229.0 12.0 1.0 1.0
0.24518152 -3.4513471 -1.8720822 0.18659888207912445 0.04407935217022896 0.9814468026161194 211.0 13.0 1.0 1.0
0.28250828 -3.4625621 -1.8798107 0.12098242342472076 0.08908876031637192 0.9886487722396851 214.0 13.0 1.0 1.0
0.27130035 -3.7583663 -1.9042573 0.16471505165100098 0.06046297028660774 0.9844863414764404 202.0 14.0 1.0 1.0
0.31099442 -3.7588186 -1.9061912 0.13782420754432678 0.01990613341331482 0.990256667137146 199.0 14.0 1.0 1.0
0.30127585 -4.1086035 -1.9408419 0.07185254245996475 0.049507055431604385 0.996185839176178 175.0 15.0 1.0 1.0
0.34705716 -4.1376228 -1.9563154 0.08258622139692307 0.011012271977961063 0.9965230226516724 193.0 15.0 1.0 1.0
1.2829837 -4.6090574 -2.102948 0.16498205065727234 0.08012067526578903 0.9830368757247925 124.0 16.0 1.0 1.0
1.3414288 -4.6304827 -2.1191578 0.1286858320236206 0.044652972370386124 0.9906795620918274 145.0 16.0 1.0 1.0
1.4229057 -5.1313376 -2.1696653 0.13396817445755005 0.09960605949163437 0.9859671592712402 46.0 17.0 1.0 1.0
1.4838167 -5.141005 -2.1803634 0.10872634500265121 0.042541246861219406 0.9931610822677612 52.0 17.0 1.0 1.0
1.6093564 -5.8301158 -2.2752399 0.11370852589607239 0.035623177886009216 0.992875337600708 33.0 18.0 1.0 1.0
1.6724598 -5.8200684 -2.2782152 0.12495266646146774 0.04131312295794487 0.9913022518157959 34.0 18.0 1.0 1.0
1.8486677 -6.7230673 -2.41171 0.1120537742972374 0.026673194020986557 0.9933441281318665 35.0 19.0 1.0 1.0
1.933607 -6.7541475 -2.4301872 0.10427802056074142 0.04758237302303314 0.993409276008606 34.0 19.0 1.0 1.0
2.160831 -7.8835697 -2.5867157 0.1411837339401245 0.047563910484313965 0.9888401627540588 37.0 20.0 1.0 1.0
2.2423031 -7.8567576 -2.5857267 0.12331561744213104 0.06720511615276337 0.9900892972946167 36.0 20.0 1.0 1.0
2.5484073 -9.3275528 -2.7824657 0.02954433672130108 0.08040810376405716 0.9963240623474121 38.0 21.0 1.0 1.0
2.649188 -9.3113565 -2.7860391 0.11546318978071213 0.03191925212740898 0.9927988052368164 37.0 21.0 1.0 1.0
3.0769956 -11.298645 -3.037755 0.1539086103439331 0.05465863272547722 0.9865721464157104 16.0 22.0 1.0 1.0
3.2396052 -11.422159 -3.0802269 0.10833843052387238 0.03633979707956314 0.9934496283531189 28.0 22.0 1.0 1.0
3.810529 -14.027802 -3.3700328 -0.9748950004577637 -0.1256069540977478 0.18385474383831024 202.0 23.0 1.0 1.0
3.9647524 -14.013264 -3.3767412 -0.9428697824478149 0.25071707367897034 0.2194027453660965 202.0 23.0 1.0 1.0
3.8205459 -14.08999 -2.9889584 -0.9537741541862488 -0.2630699574947357 0.14528939127922058 217.0 24.0 1.0 1.0
3.9733064 -14.067966 -2.9933574 -0.9874654412269592 0.0934411808848381 0.12720301747322083 214.0 24.0 1.0 1.0
3.8306136 -14.162416 -2.6093698 -0.9436554312705994 -0.3043374717235565 0.12997394800186157 226.0 25.0 1.0 1.0
3.977726 -14.11765 -2.609062 -0.9845678210258484 0.06517314165830612 0.1624145656824112 214.0 25.0 1.0 1.0
3.8414853 -14.228333 -2.2296603 -0.920060932636261 -0.3698802888393402 0.1291375756263733 220.0 26.0 1.0 1.0
3.9881978 -14.179641 -2.2288589 -0.9896045327186584 -0.06688908487558365 0.12731340527534485 226.0 26.0 1.0 1.0
3.850018 -14.275939 -1.8514011 -0.8569721579551697 -0.4989861249923706 0.12888620793819427 214.0 27.0 1.0 1.0
3.9854023 -14.185108 -1.8453431 -0.9892448782920837 -0.10811574757099152 0.09851645678281784 208.0 27.0 1.0 1.0
3.8576784 -14.330378 -1.4721521 -0.8260598182678223 -0.55765300989151 0.08153655380010605 199.0 28.0 1.0 1.0
4.0011234 -14.266158 -1.4701837 -0.9549281001091003 -0.2584590017795563 0.14598381519317627 220.0 28.0 1.0 1.0
3.8750217 -14.401009 -1.0938967 -0.7890684604644775 -0.599950909614563 0.13202250003814697 211.0 29.0 1.0 1.0
4.0148745 -14.3212 -1.0913756 -0.938430666923523 -0.31784436106681824 0.13536201417446136 217.0 29.0 1.0 1.0
3.8918815 -14.469942 -0.71508527 -0.7216254472732544 -0.6848292350769043 0.10132014751434326 190.0 30.0 1.0 1.0
4.0356665 -14.401448 -0.71415597 -0.9327969551086426 -0.3337501883506775 0.1360176056623459 235.0 30.0 1.0 1.0
3.8626161 -14.367329 -0.33096665 -0.6606969237327576 -0.7365466952323914 0.14484021067619324 40.0 31.0 1.0 1.0
4.0063882 -14.302988 -0.33083493 -0.8422607183456421 -0.40885406732559204 -0.35133376717567444 85.0 31.0 1.0 1.0
1.1005349 -13.728764 0.054726146 -0.2135378122329712 -0.046298202127218246 -0.9758371710777283 47.0 32.0 1.0 1.0
1.2301484 -13.56114 0.053607371 -0.1120452806353569 -0.049868106842041016 -0.9924509525299072 45.0 32.0 1.0 1.0
0.92370975 -11.558984 0.3410387 -0.13046444952487946 -0.06802637130022049 -0.9891164898872375 47.0 33.0 1.0 1.0
1.0382044 -11.477026 0.33850834 -0.1483941674232483 -0.06222469359636307 -0.9869686961174011 48.0 33.0 1.0 1.0
0.80868667 -10.129245 0.55792594 -0.08145195990800858 -0.6684542298316956 -0.7392798066139221 38.0 34.0 1.0 1.0
0.88524204 -9.7940788 0.5395202 -0.17674706876277924 0.15132386982440948 -0.9725541472434998 39.0 34.0 1.0 1.0
0.71267736 -8.9153385 0.72001141 -0.2037394493818283 0.148044615983963 -0.9677671194076538 38.0 35.0 1.0 1.0
0.79950505 -8.8359518 0.71390659 -0.2043682485818863 -0.9359667897224426 0.2867051064968109 37.0 35.0 1.0 1.0
0.49670148 -6.2297521 0.66350299 -0.12248506397008896 0.06748221069574356 -0.9901734590530396 27.0 36.0 1.0 1.0
0.71283096 -7.8999362 0.84257531 -0.03392411395907402 0.3310399353504181 -0.9430066347122192 58.0 36.0 1.0 1.0
0.50138313 -6.3095317 0.83739966 -0.20978817343711853 -0.07479890435934067 -0.9748815298080444 151.0 37.0 1.0 1.0
0.63656008 -7.0741014 0.93978351 -0.1698167473077774 -0.05618438497185707 -0.9838727712631226 64.0 37.0 1.0 1.0
0.50081193 -6.3374209 1.007423 -0.4439483880996704 0.8160639405250549 0.3700670003890991 163.0 38.0 1.0 1.0
0.57905906 -6.465663 1.0285413 -0.1341135948896408 -0.035850640386343 -0.9903173446655273 145.0 38.0 1.0 1.0
0.44513643 -5.662662 1.0503955 -0.19037489593029022 -0.05478943884372711 -0.9801812767982483 151.0 39.0 1.0 1.0
0.50296849 -5.6420732 1.0472829 -0.06786705553531647 0.7327080368995667 -0.6771506667137146 121.0 39.0 1.0 1.0
0.40938929 -5.2240787 1.1099832 -0.23989813029766083 -0.034459542483091354 -0.9701862335205078 196.0 40.0 1.0 1.0
0.46194851 -5.1961751 1.1048176 -0.12354756146669388 -0.05192280560731888 -0.9909793734550476 184.0 40.0 1.0 1.0
0.37978753 -4.8833766 1.1716042 -0.3433568775653839 -0.05235028639435768 -0.9377448558807373 211.0 41.0 1.0 1.0
0.42641744 -4.8288174 1.1593124 -0.29534876346588135 -0.061283741146326065 -0.9534220099449158 172.0 41.0 1.0 1.0
0.3473959 -4.5009251 1.2044336 -0.1386219710111618 -0.10392816364765167 -0.9848770499229431 226.0 42.0 1.0 1.0
0.39176425 -4.4663029 1.1960113 -0.0954986959695816 -0.06211822107434273 -0.9934895634651184 217.0 42.0 1.0 1.0
0.32039383 -4.1924562 1.2415439 -0.06269156187772751 -0.05162978917360306 -0.9966966509819031 223.0 43.0 1.0 1.0
0.36521885 -4.2003956 1.2448034 -0.16366413235664368 -0.06854870915412903 -0.9841316342353821 250.0 43.0 1.0 1.0
0.29712331 -3.9270113 1.2769254 -0.10304929316043854 -0.04354625940322876 -0.9937225580215454 232.0 44.0 1.0 1.0
0.33947632 -3.9389074 1.2817334 -0.17063073813915253 -0.02568586729466915 -0.9850001931190491 244.0 44.0 1.0 1.0
0.27966851 -3.7338498 1.3255041 -0.13246673345565796 -0.022668737918138504 -0.9909281730651855 255.0 45.0 1.0 1.0
0.31613836 -3.7007296 1.3146757 -0.19904281198978424 -0.08442322164773941 -0.9763476252555847 255.0 45.0 1.0 1.0
0.263304 -3.5597684 1.3715519 -0.3703654706478119 -0.0331154502928257 -0.9282956719398499 255.0 46.0 1.0 1.0
0.30113465 -3.5643203 1.3743025 -0.3737865388393402 -0.09544190764427185 -0.9225911498069763 255.0 46.0 1.0 1.0
0.23925878 -3.2673819 1.3617054 0.21839070320129395 -0.10702215135097504 -0.9699752330780029 250.0 47.0 1.0 1.0
0.27463055 -3.2794807 1.3677435 -0.15727858245372772 -0.02749006077647209 -0.9871715903282166 255.0 47.0 1.0 1.0
0.84803045 -3.0639193 1.4252434 -0.12053971737623215 -0.005112228449434042 -0.9926953911781311 255.0 48.0 1.0 1.0
0.87496412 -3.037406 1.4169633 -0.18511955440044403 -0.07313181459903717 -0.9799911379814148 250.0 48.0 1.0 1.0
0.80203068 -2.8848157 1.4432179 -0.16135607659816742 0.006117533892393112 -0.9868773221969604 255.0 49.0 1.0 1.0
0.83013546 -2.869406 1.4396595 -0.08221077173948288 -0.061572108417749405 -0.99471116065979 250.0 49.0 1.0 1.0
0.76498753 -2.7375107 1.4695834 -0.12875476479530334 -0.03166910633444786 -0.9911706447601318 255.0 50.0 1.0 1.0
0.78859866 -2.7123649 1.460308 -0.10172776877880096 -0.08112957328557968 -0.9914985299110413 250.0 50.0 1.0 1.0
0.72763193 -2.5870621 1.4877019 -0.07853232324123383 -0.03606480360031128 -0.9962589740753174 255.0 51.0 1.0 1.0
0.75560194 -2.5827277 1.4895716 -0.07579033821821213 -0.04221689701080322 -0.9962296485900879 253.0 51.0 1.0 1.0
0.69706494 -2.4641278 1.5155001 -0.13937127590179443 0.13117483258247375 -0.9815135598182678 255.0 52.0 1.0 1.0
0.72373706 -2.4600646 1.5174733 -0.14082781970500946 -0.027482440695166588 -0.9896525740623474 255.0 52.0 1.0 1.0
