ply
format ascii 1.0
element vertex 436
property float x
property float y
property float z
property float nx
property float ny
property float nz
property float intensity
property float ring
property float return
property float label
end_header
2.1420653 0.3897084 1.6917852 -0.14603237807750702 -0.0838058739900589 -0.9857236742973328 255.0 56.0 1.0 1.0
2.0160098 0.39462855 1.7041852 -0.13570909202098846 -0.05705087259411812 -0.9891048073768616 255.0 57.0 1.0 1.0
2.0079727 0.37123668 1.6939937 -0.12521539628505707 -0.04640298709273338 -0.9910438656806946 250.0 57.0 1.0 1.0
1.9002032 0.37796426 1.7174435 -0.15908272564411163 -0.06177843362092972 -0.9853304624557495 255.0 58.0 1.0 1.0
1.8982173 0.3569358 1.7121631 -0.1127527505159378 -0.019919155165553093 -0.9934234023094177 255.0 58.0 1.0 1.0
1.7692939 0.35840523 1.7135321 -0.13353073596954346 -0.035879772156476974 -0.9903950095176697 253.0 59.0 1.0 1.0
1.7758318 0.34042892 1.7163165 -0.13353073596954346 -0.035879772156476974 -0.9903950095176697 253.0 59.0 1.0 1.0
1.6608623 0.34378031 1.7274613 -0.15184402465820312 -0.03104381076991558 -0.9879168272018433 255.0 60.0 1.0 1.0
1.6616617 0.32583562 1.7246319 -0.12243437021970749 -0.031171707436442375 -0.9919869303703308 255.0 60.0 1.0 1.0
1.5435594 0.3276732 1.7290088 -0.1498444676399231 -0.06505000591278076 -0.9865673184394836 255.0 61.0 1.0 1.0
1.5416646 0.31042182 1.7231205 -0.1458495557308197 -0.054679255932569504 -0.9877945780754089 255.0 61.0 1.0 1.0
1.410719 0.30761728 1.7082669 -0.12487616389989853 -0.07523464411497116 -0.9893157482147217 247.0 62.0 1.0 1.0
1.4441839 0.29925385 1.7449744 -0.10086040198802948 -0.07544153183698654 -0.9920362234115601 255.0 62.0 1.0 1.0
1.3288413 0.29958209 1.7486714 -0.13128510117530823 -0.12075784057378769 -0.9839622974395752 255.0 63.0 1.0 1.0
1.3271446 0.28461334 1.742378 -0.11448395252227783 -0.10391372442245483 -0.9879754185676575 255.0 63.0 1.0 1.0
5.9644628 1.058773 -1.7090288 0.11644100397825241 -0.864542543888092 0.48888424038887024 18.0 21.0 2.0 5.0
6.0246649 1.0045882 -1.723053 0.017690123990178108 -0.7482157945632935 0.6632195115089417 20.0 21.0 2.0 1.0
6.8168168 1.2051464 -1.7576393 0.124862439930439 -0.9252945780754089 0.35810527205467224 28.0 22.0 2.0 5.0
7.8513513 1.3836843 -1.8052305 0.2521956264972687 -0.9464244246482849 0.20168830454349518 29.0 23.0 2.0 5.0
7.8962846 1.3065608 -1.8121724 0.2972733974456787 -0.9397786855697632 0.1686556190252304 27.0 23.0 2.0 5.0
9.1547136 1.6098742 -1.8534608 0.16236671805381775 -0.9564779996871948 0.24246016144752502 32.0 24.0 2.0 5.0
9.2911272 1.5338585 -1.8775601 0.17831338942050934 -0.954373836517334 0.23953048884868622 34.0 24.0 2.0 5.0
10.970295 1.922963 -1.9219739 0.11844544857740402 -0.975501537322998 0.1853846162557602 31.0 25.0 2.0 5.0
11.032697 1.8150928 -1.9292815 0.014031955040991306 -0.9899224042892456 0.14091429114341736 31.0 25.0 2.0 5.0
10.988877 1.9227263 -1.6292852 -0.00024241181381512433 -0.9970137476921082 0.07722264528274536 12.0 26.0 2.0 5.0
10.965534 1.8005174 -1.6227547 0.04544106870889664 -0.9962558746337891 0.07354721426963806 12.0 26.0 2.0 5.0
16.672325 2.9121039 -2.0309865 -0.06227358803153038 -0.9963551759719849 0.05829472094774246 14.0 27.0 2.0 6.0
16.749022 2.7451344 -2.0364404 -0.040837641805410385 -0.9990394711494446 0.01588725857436657 15.0 27.0 2.0 6.0
18.599821 3.043242 -1.7716058 0.10473688691854477 -0.9891868829727173 0.10266140848398209 8.0 28.0 2.0 6.0
19.624649 3.2022543 -0.84631938 0.0048140836879611015 -0.9946655035018921 -0.10304024070501328 5.0 30.0 2.0 6.0
21.445166 -0.22668242 0.18960865 0.05493118241429329 -0.9984748363494873 -0.005510973744094372 19.0 32.0 2.0 6.0
21.293713 -0.44813341 0.18859196 0.018620295450091362 -0.9993496537208557 0.030878961086273193 27.0 32.0 2.0 6.0
11.087985 -0.12347131 0.38016805 0.002942776307463646 -0.9994249939918518 0.033776383846998215 21.0 33.0 2.0 5.0
21.349798 -0.45603412 0.73308372 -0.05630279332399368 -0.9951580762863159 0.0805630087852478 26.0 33.0 2.0 6.0
11.10663 -0.1232916 0.66440403 -0.09125100076198578 -0.99411541223526 0.05837690830230713 23.0 34.0 2.0 5.0
21.423992 -0.45687592 1.2828375 0.015009970404207706 -0.9993075132369995 0.03404640406370163 26.0 34.0 2.0 6.0
11.11393 -0.12492863 0.94988567 0.003575104521587491 -0.9996716380119324 0.025371365249156952 20.0 35.0 2.0 5.0
21.483831 -0.46115857 1.8375996 -0.0018476624973118305 -0.9999558925628662 0.009202566929161549 18.0 35.0 2.0 6.0
21.525066 -0.46881476 2.3969386 0.06585559993982315 -0.9952022433280945 0.07235699146986008 14.0 36.0 2.0 6.0
7.68433 -0.096736886 1.2571017 0.06032813340425491 -0.8176911473274231 0.5724873542785645 13.0 38.0 2.0 5.0
7.6908317 -0.17735608 1.2585011 0.09402850270271301 -0.826627790927887 0.5548380017280579 11.0 38.0 2.0 5.0
6.8753295 -0.089313276 1.307125 0.01163387205451727 -0.9948215484619141 0.10096899420022964 18.0 39.0 2.0 5.0
6.9015589 -0.16190796 1.3124546 0.04322631284594536 -0.9864217042922974 0.15844129025936127 16.0 39.0 2.0 5.0
6.4716945 -0.087562315 1.4049649 0.09917155653238297 -0.9575732350349426 0.270589143037796 20.0 40.0 2.0 5.0
6.431386 -0.1544054 1.3965614 -0.05605817213654518 -0.976015031337738 -0.2103620171546936 16.0 40.0 2.0 5.0
1.2125632 -0.11722158 -1.5946187 0.13263355195522308 0.0774940699338913 0.988131046295166 255.0 0.0 1.0 1.0
1.2112254 -0.10436977 -1.5914528 0.13263355195522308 0.0774940699338913 0.988131046295166 255.0 0.0 1.0 1.0
1.3352536 -0.11922477 -1.6148564 0.11582314223051071 0.017204878851771355 0.9931208491325378 255.0 1.0 1.0 1.0
1.3236245 -0.10433575 -1.5994706 0.11582314223051071 0.017204878851771355 0.9931208491325378 255.0 1.0 1.0 1.0
1.4225949 -0.11878001 -1.5927303 0.11035874485969543 0.09977592527866364 0.9888709187507629 255.0 2.0 1.0 1.0
1.4343188 -0.10466117 -1.6046754 0.08117591589689255 0.0705360397696495 0.9942007660865784 255.0 2.0 1.0 1.0
1.5528146 -0.12138015 -1.6139039 0.10817398875951767 0.08353444188833237 0.9906161427497864 255.0 3.0 1.0 1.0
1.5539175 -0.1051625 -1.6139246 0.1052369773387909 0.08058348298072815 0.9911768436431885 255.0 3.0 1.0 1.0
1.6750705 -0.12360986 -1.6220169 0.21014650166034698 0.047514066100120544 0.9765145778656006 255.0 4.0 1.0 1.0
1.6561022 -0.10490714 -1.602571 0.2188805192708969 0.04128511995077133 0.9748778939247131 253.0 4.0 1.0 1.0
1.7891736 -0.12524751 -1.617251 0.1366453617811203 0.08379526436328888 0.9870695471763611 255.0 5.0 1.0 1.0
1.7903043 -0.10655439 -1.617275 0.12371857464313507 0.1263926923274994 0.9842349886894226 255.0 5.0 1.0 1.0
1.9214263 -0.12790371 -1.62403 0.12836956977844238 0.01160276960581541 0.9916585087776184 255.0 6.0 1.0 1.0
1.9195257 -0.10766356 -1.6214747 0.12836956977844238 0.01160276960581541 0.9916585087776184 255.0 6.0 1.0 1.0
2.0731292 -0.13198382 -1.6407095 0.11618279665708542 0.05044219270348549 0.9919461011886597 255.0 7.0 1.0 1.0
2.0617807 -0.10968433 -1.6308124 0.16791889071464539 0.1029428243637085 0.980411171913147 255.0 7.0 1.0 1.0
2.2132804 -0.13535985 -1.6419501 0.11211898922920227 0.028332458809018135 0.9932908415794373 255.0 8.0 1.0 1.0
2.2048647 -0.11176171 -1.6348332 0.11211898922920227 0.028332458809018135 0.9932908415794373 255.0 8.0 1.0 1.0
2.3607929 -0.13850556 -1.6423181 0.11040893197059631 0.044855158776044846 0.99287348985672 255.0 9.0 1.0 1.0
2.3587499 -0.11367603 -1.6400667 0.11040893197059631 0.044855158776044846 0.99287348985672 255.0 9.0 1.0 1.0
2.5227745 -0.14351653 -1.6451735 0.16634203493595123 -0.025728503242135048 0.9857324361801147 241.0 10.0 1.0 1.0
2.5307512 -0.11743632 -1.6495759 0.1333426535129547 0.008027680218219757 0.9910374879837036 253.0 10.0 1.0 1.0
2.7201297 -0.14940892 -1.6621319 0.11387774348258972 0.05186541751027107 0.9921400547027588 247.0 11.0 1.0 1.0
2.7009976 -0.12009885 -1.6496601 0.11371290683746338 0.045348748564720154 0.9924781918525696 238.0 11.0 1.0 1.0
2.9097407 -0.15470989 -1.6635505 0.1823623925447464 0.032844532281160355 0.9826826453208923 238.0 12.0 1.0 1.0
2.9145877 -0.12442297 -1.6655746 0.14237941801548004 -0.008218062110245228 0.9897780418395996 241.0 12.0 1.0 1.0
3.1461246 -0.16282429 -1.6821516 0.12885986268520355 0.02948746457695961 0.9912242889404297 238.0 13.0 1.0 1.0
3.1369982 -0.12950279 -1.6765388 0.1107824370265007 0.011153711006045341 0.9937820434570312 238.0 13.0 1.0 1.0
3.3780046 -0.17071536 -1.6862063 0.16364122927188873 0.051770661026239395 0.9851605296134949 220.0 14.0 1.0 1.0
3.3723698 -0.13510783 -1.6826811 0.10066860914230347 0.06502753496170044 0.9927926659584045 226.0 14.0 1.0 1.0
3.6697786 -0.1809669 -1.706877 0.15101903676986694 0.04069467633962631 0.9876929521560669 214.0 15.0 1.0 1.0
3.6532648 -0.14190271 -1.6984965 0.16066496074199677 0.05941077321767807 0.9852193593978882 205.0 15.0 1.0 1.0
3.6759253 0.54984224 -1.6094075 0.07449067384004593 0.006083479151129723 0.9972031712532043 214.0 16.0 1.0 1.0
3.662637 0.58708179 -1.6062855 0.12862475216388702 0.03302963450551033 0.9911431074142456 211.0 16.0 1.0 1.0
4.0084033 0.59604269 -1.6254702 0.18465355038642883 0.04349697008728981 0.9818405508995056 205.0 17.0 1.0 1.0
3.9945281 0.63675565 -1.6225539 0.09990030527114868 0.01957329548895359 0.9948049187660217 211.0 17.0 1.0 1.0
4.0734043 0.60091758 -1.5235713 -0.4631049633026123 0.007178220897912979 0.8862743973731995 178.0 18.0 1.0 1.0
4.3483362 0.68847197 -1.6291506 0.0011978034162893891 0.02036864683032036 0.9997919201850891 175.0 18.0 1.0 1.0
4.0604353 0.59482688 -1.3948307 0.05986229330301285 -0.9146522879600525 0.3997846245765686 181.0 19.0 1.0 1.0
4.667316 0.73464185 -1.6060338 0.013728110119700432 -0.9287080764770508 0.3705575466156006 255.0 19.0 1.0 1.0
4.0771542 0.59384954 -1.2797502 0.0 0.0 0.0 175.0 20.0 1.0 0.0
4.8177238 0.75442648 -1.5147718 0.2013029009103775 0.17760729789733887 0.9632927179336548 217.0 20.0 1.0 1.0
4.1361327 0.5990234 -1.1788244 0.01634926348924637 -0.9968177676200867 -0.07801998406648636 139.0 21.0 1.0 1.0
4.760879 0.74140298 -1.3591619 -0.0 -0.9999999403953552 -0.0 26.0 21.0 1.0 1.0
4.9370723 0.71203935 -1.2662299 -0.25035491585731506 -0.9645595550537109 0.08335062861442566 15.0 22.0 1.0 1.0
4.9637427 0.76903862 -1.2751647 0.6214673519134521 -0.7045093774795532 0.34270232915878296 9.0 22.0 1.0 2.0
4.8023825 0.68922156 -1.0983517 -0.22728416323661804 -0.9697031378746033 0.08954188972711563 25.0 23.0 1.0 1.0
4.8218107 0.74362522 -1.104609 0.31316009163856506 -0.936850368976593 0.15569919347763062 22.0 23.0 1.0 0.0
4.9689875 0.7108947 -1.0007143 0.0 0.0 0.0 18.0 24.0 1.0 0.0
4.9689498 0.76404876 -1.0023556 -0.1935681402683258 -0.9772350788116455 0.08684983104467392 17.0 24.0 1.0 2.0
4.8725076 0.69369745 -0.84918249 0.0 0.0 0.0 26.0 25.0 1.0 0.0
4.9116516 0.75185645 -0.85741848 -0.14117422699928284 -0.9830089807510376 0.11731671541929245 22.0 25.0 1.0 1.0
5.0299506 0.71472251 -0.74189007 0.0 0.0 0.0 21.0 26.0 1.0 0.0
5.0025606 0.76430207 -0.73907912 0.0 0.0 0.0 21.0 26.0 1.0 0.0
5.012044 0.70967466 -0.60743803 0.1367708295583725 -0.9859205484390259 0.09619912505149841 20.0 27.0 1.0 2.0
5.0081949 0.76268452 -0.60799235 0.00866897962987423 -0.9989109635353088 -0.0458456352353096 19.0 27.0 1.0 2.0
5.0023904 0.7067098 -0.47501379 -0.052509158849716187 -0.9967827796936035 0.06055362895131111 25.0 28.0 1.0 2.0
4.9907122 0.75841421 -0.47471735 -0.027153437957167625 -0.9990336298942566 0.03456111252307892 24.0 28.0 1.0 2.0
5.0327716 0.70944291 -0.34667033 0.0016872691921889782 -0.9967482686042786 0.0805610716342926 29.0 29.0 1.0 2.0
5.013166 0.76025951 -0.34593281 -0.035268425941467285 -0.9991663098335266 0.020558366551995277 28.0 29.0 1.0 2.0
5.0281072 0.70807755 -0.21634156 0.0004384003404993564 -0.9939364790916443 -0.10995542258024216 24.0 30.0 1.0 2.0
4.9926996 0.75643194 -0.21523014 -0.006590467412024736 -0.9979220032691956 -0.06409648060798645 23.0 30.0 1.0 2.0
5.047852 0.71017641 -0.087403476 0.017591476440429688 -0.9997822046279907 0.011227071285247803 22.0 31.0 1.0 2.0
5.0282164 0.76115298 -0.087277338 -0.024070534855127335 -0.9991014003753662 0.03488503396511078 21.0 31.0 1.0 2.0
5.026566 -0.21547313 0.044200752 -0.07312620431184769 -0.9963085651397705 0.044966038316488266 115.0 32.0 1.0 2.0
5.052474 -0.16360645 0.044345409 -0.0404786691069603 -0.9989987015724182 0.019054392352700233 109.0 32.0 1.0 2.0
5.0157433 -0.21660754 0.17192924 0.024541743099689484 -0.9984049797058105 -0.050844956189394 13.0 33.0 1.0 2.0
5.0576348 -0.16536465 0.17323472 0.027686135843396187 -0.9942128658294678 0.1037992537021637 28.0 33.0 1.0 2.0
5.049624 -0.21786465 0.30209517 0.017044292762875557 -0.9998455047607422 -0.004278949927538633 28.0 34.0 1.0 2.0
5.0356088 -0.1645004 0.30106908 -0.08737681806087494 -0.994666576385498 -0.054804641753435135 26.0 34.0 1.0 2.0
5.0322714 -0.21784647 0.43018478 0.03688007593154907 -0.9992653131484985 -0.010423168540000916 28.0 35.0 1.0 2.0
5.0421891 -0.16541855 0.4307979 0.05223262682557106 -0.9974027872085571 -0.04959313943982124 26.0 35.0 1.0 2.0
5.0433869 -0.21990824 0.56139368 0.03442911431193352 -0.9993508458137512 -0.010614663362503052 22.0 36.0 1.0 2.0
5.041388 -0.16698353 0.56088185 -0.09534462541341782 -0.9910888671875 0.09301722049713135 24.0 36.0 1.0 2.0
5.0232248 -0.22063613 0.6906091 0.00716703524813056 -0.9986952543258667 -0.05056218057870865 250.0 37.0 1.0 1.0
4.9935241 -0.16702445 0.68617988 -0.02663622610270977 -0.9992882609367371 -0.0267077274620533 226.0 37.0 1.0 1.0
5.0668793 -0.22498834 0.82945418 0.06723669916391373 -0.8893446922302246 0.45226672291755676 24.0 38.0 1.0 2.0
5.0767994 -0.17220059 0.83067769 0.10216733813285828 -0.8472977876663208 0.5211988091468811 25.0 38.0 1.0 2.0
5.0634141 -0.2264339 0.96338707 -0.052694171667099 -0.9899905920028687 0.13092677295207977 25.0 39.0 1.0 2.0
5.0693884 -0.17355159 0.96406567 -0.025079304352402687 -0.9895600080490112 0.14192309975624084 25.0 39.0 1.0 2.0
5.0171232 -0.22686976 1.0900822 -0.06567671149969101 -0.9746143817901611 -0.21404065191745758 24.0 40.0 1.0 2.0
5.0074592 -0.17394756 1.0874654 -0.057261306792497635 -0.976957380771637 -0.20561003684997559 24.0 40.0 1.0 2.0
4.9208784 -0.22589038 1.2044007 -0.056698624044656754 -0.9794797301292419 -0.19340312480926514 25.0 41.0 1.0 0.0
4.9112816 -0.17396957 1.2014804 -0.04140857607126236 -0.9802913665771484 -0.19316858053207397 23.0 41.0 1.0 0.0
5.2925949 -0.24604006 1.4423428 -0.05287851020693779 -0.9813079237937927 -0.1850368231534958 31.0 42.0 1.0 5.0
5.2639861 -0.18954387 1.4338572 -0.05613997206091881 -0.9800115823745728 -0.19085480272769928 34.0 42.0 1.0 5.0
4.7168155 -0.22383261 1.4202793 -0.13895592093467712 -0.7041167616844177 -0.6963555216789246 148.0 43.0 1.0 1.0
4.7494822 -0.17554118 1.429441 -0.14563407003879547 -0.6880404353141785 -0.7109086513519287 163.0 43.0 1.0 1.0
4.4232283 -0.21394986 1.4605918 -0.09638700634241104 -0.07966913282871246 -0.9921503663063049 172.0 44.0 1.0 1.0
4.4213905 -0.16749862 1.4592773 -0.10478078573942184 -0.08786455541849136 -0.9906062483787537 139.0 44.0 1.0 1.0
4.0855103 -0.20145679 1.4712341 -0.1392883062362671 -0.2772614657878876 -0.9506444931030273 190.0 45.0 1.0 1.0
4.0986385 -0.159104 1.475244 -0.1813943237066269 -0.04297691211104393 -0.9824709296226501 184.0 45.0 1.0 1.0
4.0447121 -0.20358533 1.579558 -0.13365289568901062 -0.21949858963489532 -0.966414749622345 255.0 46.0 1.0 1.0
4.042861 -0.16109295 1.578048 -0.10949919372797012 -0.20176586508750916 -0.9732936024665833 255.0 46.0 1.0 1.0
3.5769908 -0.1836731 1.5098294 -0.11523891240358353 -0.12219010293483734 -0.9857938885688782 255.0 47.0 1.0 1.0
3.5970907 -0.14694683 1.5175581 -0.11548241972923279 -0.12218662351369858 -0.985765814781189 255.0 47.0 1.0 1.0
3.5210905 0.51731205 1.6189327 -0.12636098265647888 -0.09143175184726715 -0.9877617359161377 247.0 48.0 1.0 1.0
3.511848 0.5535658 1.61722 -0.1364666372537613 -0.07718423753976822 -0.9876332879066467 247.0 48.0 1.0 1.0
3.2828708 0.48557127 1.6219988 -0.1500319391489029 -0.08388390392065048 -0.9851162433624268 253.0 49.0 1.0 1.0
3.2811158 0.52047521 1.6237054 -0.13584177196025848 -0.08359334617853165 -0.9871976375579834 244.0 49.0 1.0 1.0
3.0818236 0.45946425 1.6326581 -0.13175556063652039 -0.040560413151979446 -0.9904521703720093 250.0 50.0 1.0 1.0
3.0907929 0.49395823 1.6400421 -0.1467108577489853 -0.079491026699543 -0.9859802722930908 253.0 50.0 1.0 1.0
2.889082 0.43513879 1.6383182 -0.12689781188964844 -0.015346454456448555 -0.9917970895767212 244.0 51.0 1.0 1.0
2.908426 0.46929216 1.6519792 -0.1357395499944687 -0.02434021793305874 -0.9904454946517944 255.0 51.0 1.0 1.0
2.7287064 0.41469303 1.6538383 -0.165519118309021 -0.08415946364402771 -0.9826090931892395 255.0 52.0 1.0 1.0
2.7377148 0.44546199 1.6620265 -0.1656973958015442 -0.08415690809488297 -0.982579231262207 255.0 52.0 1.0 1.0
2.5691721 0.39482805 1.66255 -0.15463072061538696 -0.07974100857973099 -0.9847491383552551 255.0 53.0 1.0 1.0
2.5715048 0.42280295 1.666824 -0.1330760419368744 -0.07847094535827637 -0.9879944324493408 255.0 53.0 1.0 1.0
2.4233735 0.377422 1.6741139 -0.15880900621414185 -0.03578365966677666 -0.9866606593132019 255.0 54.0 1.0 1.0
2.4225082 0.40331271 1.6763328 -0.14169535040855408 -0.06757484376430511 -0.9876011610031128 255.0 54.0 1.0 1.0
2.2720249 0.35849252 1.675055 -0.14040140807628632 -0.06653247773647308 -0.9878566265106201 255.0 55.0 1.0 1.0
2.2617383 0.38115734 1.6703058 -0.10683143883943558 -0.060979824513196945 -0.992405354976654 255.0 55.0 1.0 1.0
2.1404779 0.34327781 1.6844807 -0.08812635391950607 -0.05368657037615776 -0.9946615099906921 253.0 56.0 1.0 1.0
2.1367295 0.36565748 1.6844469 -0.09787736088037491 -0.06348913162946701 -0.9931712746620178 250.0 56.0 1.0 1.0
2.0032353 0.32712498 1.6838304 -0.1481255143880844 -0.08989771455526352 -0.9848742485046387 250.0 57.0 1.0 1.0
2.0087521 0.34967938 1.6914668 -0.12228617817163467 -0.04642007127404213 -0.9914087057113647 255.0 57.0 1.0 1.0
1.8905979 0.31464365 1.6989435 -0.10681299865245819 -0.06021970510482788 -0.9924538135528564 250.0 58.0 1.0 1.0
1.887163 0.33440834 1.6989136 -0.15205392241477966 -0.05986194312572479 -0.9865577220916748 250.0 58.0 1.0 1.0
1.7655011 0.30023205 1.6998352 -0.1287888139486313 -0.07305976748466492 -0.9889771342277527 250.0 59.0 1.0 1.0
1.7679262 0.31973928 1.705319 -0.1287888139486313 -0.07305976748466492 -0.9889771342277527 250.0 59.0 1.0 1.0
1.6544046 0.28855231 1.7104012 -0.13033230602741241 -0.08141855895519257 -0.9881216883659363 250.0 60.0 1.0 1.0
1.6595106 0.30740589 1.7189441 -0.12243437021970749 -0.031171707436442375 -0.9919869303703308 255.0 60.0 1.0 1.0
1.5531937 0.27908659 1.729082 -0.10535044968128204 -0.054962702095508575 -0.992915153503418 255.0 61.0 1.0 1.0
1.5554391 0.29634967 1.7349706 -0.10535044968128204 -0.054962702095508575 -0.992915153503418 255.0 61.0 1.0 1.0
1.4375294 0.26658314 1.7297342 -0.10134732723236084 -0.06222953647375107 -0.992902934551239 255.0 62.0 1.0 1.0
1.432094 0.28109872 1.7266542 -0.08938373625278473 -0.0668572187423706 -0.993750810623169 255.0 62.0 1.0 1.0
1.3280624 0.25585222 1.736105 -0.1537838876247406 -0.10303142666816711 -0.9827182292938232 255.0 63.0 1.0 1.0
1.3276786 0.27023086 1.7392412 -0.11448395252227783 -0.10391372442245483 -0.9879754185676575 255.0 63.0 1.0 1.0
6.0463367 0.9432658 -1.7262313 -0.0 -0.9999999403953552 -0.0 22.0 21.0 2.0 1.0
6.9935107 1.0112041 -1.7937495 -0.25035491585731506 -0.9645595550537109 0.08335062861442566 27.0 22.0 2.0 1.0
6.951808 1.0795451 -1.7859845 0.6214673519134521 -0.7045093774795532 0.34270232915878296 29.0 22.0 2.0 5.0
8.08424 1.1644565 -1.8490386 -0.22728416323661804 -0.9697031378746033 0.08954188972711563 23.0 23.0 2.0 1.0
7.9443035 1.2292132 -1.8200184 0.31316009163856506 -0.936850368976593 0.15569919347763062 26.0 23.0 2.0 5.0
9.5232725 1.3681368 -1.9179564 0.0 0.0 0.0 33.0 24.0 2.0 0.0
9.4230528 1.4545149 -1.9009001 -0.1935681402683258 -0.9772350788116455 0.08684983104467392 32.0 24.0 2.0 5.0
11.076262 1.5848107 -1.9303268 0.0 0.0 0.0 25.0 25.0 2.0 0.0
11.012225 1.6934433 -1.9223388 -0.14117422699928284 -0.9830089807510376 0.11731671541929245 26.0 25.0 2.0 1.0
10.989244 1.5688339 -1.6207087 0.0 0.0 0.0 18.0 26.0 2.0 0.0
10.983866 1.6855824 -1.6226132 0.0 0.0 0.0 14.0 26.0 2.0 0.0
17.345583 2.4712663 -2.1016989 0.1367708295583725 -0.9859205484390259 0.09619912505149841 13.0 27.0 2.0 6.0
17.039951 2.6099253 -2.0681448 -0.08166789263486862 -0.9956115484237671 -0.04569420590996742 13.0 27.0 2.0 6.0
10.920269 1.5500762 -1.0366203 -0.052509158849716187 -0.9967827796936035 0.06055362895131111 13.0 28.0 2.0 5.0
18.618946 2.8464296 -1.7702458 -0.017367692664265633 -0.9992513060569763 0.03456864133477211 6.0 28.0 2.0 6.0
19.572189 2.7713959 -0.33735475 0.017591476440429688 -0.9997822046279907 0.011227071285247803 17.0 31.0 2.0 6.0
19.510403 2.9713352 -0.3371135 -0.015581178478896618 -0.9992696642875671 0.03489090874791145 13.0 31.0 2.0 6.0
11.021097 -0.46575084 0.097645268 -0.07312620431184769 -0.9963085651397705 0.044966038316488266 17.0 32.0 2.0 5.0
21.291889 -0.67131823 0.18886058 -0.0404786691069603 -0.9989987015724182 0.019054392352700233 25.0 32.0 2.0 6.0
11.074792 -0.47149634 0.3804594 0.024541743099689484 -0.9984049797058105 -0.050844956189394 13.0 33.0 2.0 5.0
21.31991 -0.67892939 0.73249286 0.027686135843396187 -0.9942128658294678 0.1037992537021637 27.0 33.0 2.0 6.0
11.077471 -0.47124037 0.66363716 0.017044292762875557 -0.9998455047607422 -0.004278949927538633 16.0 34.0 2.0 5.0
21.378153 -0.6800521 1.2806797 -0.08737681806087494 -0.994666576385498 -0.054804641753435135 25.0 34.0 2.0 6.0
21.290331 -0.90352982 1.8227805 0.03688007593154907 -0.9992653131484985 -0.010423168540000916 17.0 35.0 2.0 6.0
21.37826 -0.68307018 1.8293092 0.05223262682557106 -0.9974027872085571 -0.04959313943982124 26.0 35.0 2.0 6.0
21.435102 -0.91640955 2.3890543 0.03442911431193352 -0.9993508458137512 -0.010614663362503052 25.0 36.0 2.0 6.0
21.427605 -0.69139689 2.3869896 -0.09534462541341782 -0.9910888671875 0.09301722049713135 25.0 36.0 2.0 6.0
21.520081 -0.93736619 3.5264471 0.04936590790748596 -0.8822774887084961 0.46813398599624634 26.0 38.0 2.0 6.0
21.678627 -0.71687818 3.5507154 0.10216733813285828 -0.8472977876663208 0.5211988091468811 26.0 38.0 2.0 6.0
21.524021 -0.944323 4.0991125 -0.052694171667099 -0.9899905920028687 0.13092677295207977 26.0 39.0 2.0 6.0
21.670185 -0.72341925 4.1249909 -0.025079304352402687 -0.9895600080490112 0.14192309975624084 17.0 39.0 2.0 6.0
21.542957 -0.9556939 4.6848793 -0.06567671149969101 -0.9746143817901611 -0.21404065191745758 25.0 40.0 2.0 6.0
21.57523 -0.73082268 4.6896811 -0.057261306792497635 -0.976957380771637 -0.20561003684997559 12.0 40.0 2.0 6.0
21.509995 -0.96851861 5.2692199 -0.056698624044656754 -0.9794797301292419 -0.19340312480926514 23.0 41.0 2.0 6.0
21.550341 -0.98462695 5.877357 -0.05287851020693779 -0.9813079237937927 -0.1850368231534958 20.0 42.0 2.0 6.0
1.2089216 -0.12960055 -1.5914214 0.11025431007146835 0.05487729609012604 0.9923872947692871 255.0 0.0 1.0 1.0
1.2172165 -0.14329636 -1.6041323 0.08592239767313004 0.05500972270965576 0.9947820901870728 255.0 0.0 1.0 1.0
1.3289165 -0.13265063 -1.6086781 0.11582314223051071 0.017204878851771355 0.9931208491325378 255.0 1.0 1.0 1.0
1.3250004 -0.14624114 -1.6055802 0.1745632439851761 -0.02672315388917923 0.9842832684516907 255.0 1.0 1.0 1.0
1.4239929 -0.13384704 -1.5956938 0.11035874485969543 0.09977592527866364 0.9888709187507629 255.0 2.0 1.0 1.0
1.4385152 -0.15030621 -1.613564 0.11357661336660385 0.09795426577329636 0.9886886477470398 255.0 2.0 1.0 1.0
1.5487574 -0.13733676 -1.6110038 0.10817398875951767 0.08353444188833237 0.9906161427497864 255.0 3.0 1.0 1.0
1.5445551 -0.15323445 -1.6081026 0.13245610892772675 0.08328714966773987 0.9876834750175476 255.0 3.0 1.0 1.0
1.6680174 -0.14061855 -1.6164341 0.231016144156456 0.05829325318336487 0.9712020754814148 255.0 4.0 1.0 1.0
1.6722624 -0.15855342 -1.6219742 0.12069645524024963 0.09762627631425858 0.9878772497177124 255.0 4.0 1.0 1.0
1.7907879 -0.14414509 -1.6199101 0.1739223450422287 0.04787471517920494 0.9835950136184692 255.0 5.0 1.0 1.0
1.7715203 -0.16128054 -1.6038008 0.16774044930934906 0.041518330574035645 0.9849566221237183 241.0 5.0 1.0 1.0
1.9230934 -0.14818391 -1.6265875 0.09638386219739914 0.02885342948138714 0.994925856590271 255.0 6.0 1.0 1.0
1.9336996 -0.16929726 -1.6368858 0.09638386219739914 0.02885342948138714 0.994925856590271 255.0 6.0 1.0 1.0
2.0716977 -0.15362725 -1.6406846 0.13038310408592224 0.050352610647678375 0.9901843667030334 255.0 7.0 1.0 1.0
2.0638049 -0.17475125 -1.6356949 0.10806963592767715 0.027750439941883087 0.9937559962272644 255.0 7.0 1.0 1.0
2.205395 -0.15802841 -1.6371592 0.11451613903045654 0.08988166600465775 0.9893469214439392 255.0 8.0 1.0 1.0
2.2069056 -0.1813204 -1.6395122 0.0875619500875473 0.06280717253684998 0.9941772222518921 255.0 8.0 1.0 1.0
2.3723853 -0.16403913 -1.6514232 0.15758340060710907 0.04254833981394768 0.9865886569023132 255.0 9.0 1.0 1.0
2.3738954 -0.18907736 -1.653675 0.12178356945514679 0.006054984405636787 0.9925382137298584 255.0 9.0 1.0 1.0
2.5245416 -0.17008913 -1.6473279 0.19402554631233215 0.0035215646494179964 0.9809901714324951 247.0 10.0 1.0 1.0
2.5427551 -0.19798487 -1.6603978 0.11454992741346359 0.05695430934429169 0.9917834997177124 255.0 10.0 1.0 1.0
2.7287011 -0.17847894 -1.6683542 0.1711498349905014 0.05143473669886589 0.9839015603065491 247.0 11.0 1.0 1.0
2.7267666 -0.20699424 -1.6683177 0.11135295033454895 0.004199654329568148 0.9937720894813538 244.0 11.0 1.0 1.0
2.9426901 -0.18725935 -1.6833605 0.08372009545564651 0.015069871209561825 0.996375322341919 255.0 12.0 1.0 1.0
2.9441156 -0.2182655 -1.6853055 0.1219250038266182 0.012455159798264503 0.9924611449241638 250.0 12.0 1.0 1.0
3.1443117 -0.19571006 -1.6821152 0.11453118920326233 0.06344959139823914 0.9913913607597351 232.0 13.0 1.0 1.0
3.1562505 -0.22957569 -1.6896133 0.094893679022789 -0.0062716626562178135 0.9954676628112793 241.0 13.0 1.0 1.0
3.4118266 -0.20815189 -1.7040232 0.17513595521450043 0.08326587080955505 0.981016993522644 232.0 14.0 1.0 1.0
3.4095442 -0.2438187 -1.7039775 0.12807762622833252 0.03525977209210396 0.9911372065544128 220.0 14.0 1.0 1.0
3.6677473 -0.21933894 -1.706835 0.11131683737039566 0.06460902839899063 0.9916825294494629 205.0 15.0 1.0 1.0
3.6725714 -0.25818294 -1.7101576 0.05620361864566803 0.01572072133421898 0.9982954859733582 205.0 15.0 1.0 1.0
3.7069941 0.51494205 -1.6204863 0.09247136861085892 -0.01202329620718956 0.9956428408622742 217.0 16.0 1.0 1.0
3.7450261 0.48039943 -1.6347357 0.1444481909275055 0.09712229669094086 0.9847344756126404 229.0 16.0 1.0 1.0
4.0218477 0.55510539 -1.6283954 0.12686578929424286 0.002353092422708869 0.9919171929359436 202.0 17.0 1.0 1.0
4.0459337 0.5153811 -1.6357796 0.09126809984445572 -0.00343668763525784 0.9958203434944153 205.0 17.0 1.0 1.0
4.0981216 0.56084186 -1.5304586 -0.3744461238384247 -0.9245104193687439 0.07120689749717712 255.0 18.0 1.0 1.0
4.0740824 0.51414269 -1.5192899 -0.1105627492070198 -0.9924736618995667 0.05264892801642418 255.0 18.0 1.0 1.0
4.085268 0.55489236 -1.4012135 -0.45434337854385376 -0.8902699947357178 -0.03148631006479263 255.0 19.0 1.0 1.0
4.0608778 0.50832081 -1.3908525 -0.07596245408058167 -0.9965884685516357 -0.03226672112941742 255.0 19.0 1.0 1.0
4.0529361 0.54702902 -1.2702038 -0.5023673176765442 -0.8596463799476624 0.09292549639940262 255.0 20.0 1.0 1.0
4.0509405 0.503649 -1.2677686 -0.15345945954322815 -0.9823044538497925 0.107368603348732 255.0 20.0 1.0 1.0
4.2490587 0.57020611 -1.2091743 0.18255996704101562 -0.5842974185943604 0.7907392382621765 205.0 21.0 1.0 1.0
4.2243137 0.52190435 -1.2004223 0.07293567061424255 -0.05129333212971687 0.9960167407989502 169.0 21.0 1.0 1.0
4.8021593 0.6411705 -1.229753 -0.0 -1.0 0.0 29.0 22.0 1.0 1.0
4.4970379 0.55219978 -1.1499709 0.32212063670158386 -0.5569658875465393 0.76552414894104 235.0 22.0 1.0 1.0
4.786201 0.63581538 -1.0929903 -0.6422647833824158 -0.41736534237861633 0.6428858041763306 27.0 23.0 1.0 1.0
4.5332546 0.55366945 -1.033753 0.039644502103328705 -0.9248119592666626 0.378353089094162 220.0 23.0 1.0 1.0
4.9762225 0.65885282 -1.0006493 -0.02317468822002411 -0.9996354579925537 -0.013853644020855427 19.0 24.0 1.0 1.0
4.5818925 0.55742466 -0.92004305 -0.018788594752550125 -0.854719340801239 0.5187503695487976 202.0 24.0 1.0 1.0
4.7975101 0.63175535 -0.83484083 -0.27302515506744385 -0.9608262181282043 0.047648441046476364 29.0 25.0 1.0 1.0
4.6552548 0.56333524 -0.80893296 -0.39884528517723083 -0.633960485458374 0.6625832319259644 154.0 25.0 1.0 1.0
4.9822879 0.65475178 -0.73373628 0.08631648868322372 -0.9867965579032898 -0.13704802095890045 19.0 26.0 1.0 2.0
4.9064341 0.59251559 -0.72152865 -0.02669183723628521 -0.9955853223800659 -0.08998555690050125 27.0 26.0 1.0 2.0
4.9759493 0.65145427 -0.60213363 0.18248364329338074 -0.9819164276123047 0.05039722099900246 22.0 27.0 1.0 2.0
4.9865098 0.5998292 -0.60253346 -0.6655473113059998 -0.7419350743293762 0.08111228793859482 24.0 27.0 1.0 2.0
4.9740396 0.64962828 -0.47158173 0.15880931913852692 -0.9857115745544434 0.056145522743463516 26.0 28.0 1.0 2.0
5.0557537 0.60664731 -0.47861207 -0.4209570288658142 -0.8926693797111511 0.16104784607887268 26.0 28.0 1.0 2.0
5.0518503 0.65828764 -0.34742019 0.009006311185657978 -0.9980245232582092 0.0621756948530674 40.0 29.0 1.0 2.0
5.0426841 0.60346937 -0.34625569 -0.07904604822397232 -0.9968229532241821 -0.009779753163456917 82.0 29.0 1.0 2.0
4.9758658 0.6476 -0.21372864 -0.019956491887569427 -0.9994465112686157 -0.02661661058664322 25.0 30.0 1.0 2.0
4.9943404 0.59692961 -0.2141616 0.11828801035881042 -0.9929673671722412 -0.004865044727921486 26.0 30.0 1.0 2.0
5.043169 0.65573817 -0.087133482 -0.01906849443912506 -0.9984906911849976 0.05150401592254639 25.0 31.0 1.0 2.0
4.9624662 0.59238863 -0.085559539 0.15265721082687378 -0.9850631952285767 0.07966363430023193 25.0 31.0 1.0 2.0
5.0240788 -0.26807749 0.044257268 0.006365634500980377 -0.9999776482582092 0.002050354378297925 106.0 32.0 1.0 2.0
5.037024 -0.32164374 0.04446793 0.020428048446774483 -0.9997841119766235 0.003790037939324975 94.0 32.0 1.0 2.0
5.0292115 -0.26993906 0.17253569 -0.006744049023836851 -0.9995260238647461 0.03003840148448944 30.0 33.0 1.0 2.0
5.0141978 -0.32180321 0.17219074 -0.03379976749420166 -0.9990596771240234 -0.027154145762324333 29.0 33.0 1.0 2.0
5.0112214 -0.2688278 0.29999796 -0.021426532417535782 -0.9985485672950745 0.04941192641854286 28.0 34.0 1.0 2.0
5.0201421 -0.32201344 0.30078363 -0.12847256660461426 -0.9812497496604919 0.1436791867017746 28.0 34.0 1.0 2.0
5.0337338 -0.27072382 0.43058243 0.020057614892721176 -0.9920721054077148 0.12405937165021896 28.0 35.0 1.0 2.0
5.0704522 -0.32590589 0.43406203 -0.07456418871879578 -0.9895428419113159 0.12347177416086197 29.0 35.0 1.0 2.0
5.0209975 -0.27164176 0.55923581 -0.04406103491783142 -0.9962551593780518 0.0743931382894516 26.0 36.0 1.0 2.0
5.01793 -0.3241792 0.55930346 -0.011591631919145584 -0.9973098635673523 0.0723794475197792 28.0 36.0 1.0 2.0
5.0088048 -0.27257857 0.68903005 -0.05856454372406006 -0.9847161173820496 -0.1640254408121109 241.0 37.0 1.0 1.0
5.0255003 -0.32625148 0.69182354 -0.01959722675383091 -0.9675899744033813 -0.25176531076431274 253.0 37.0 1.0 1.0
5.0603399 -0.27781069 0.82886457 0.0910898819565773 -0.8510995507240295 0.5170416235923767 26.0 38.0 1.0 2.0
5.0493231 -0.33025524 0.82763958 0.05367192253470421 -0.934739351272583 0.3512573838233948 26.0 38.0 1.0 2.0
5.0529528 -0.27900794 0.9619481 0.02883867174386978 -0.9934959411621094 0.11015518754720688 24.0 39.0 1.0 2.0
5.0654855 -0.33289671 0.9650079 0.06903066486120224 -0.9958238005638123 0.059747349470853806 27.0 39.0 1.0 2.0
5.0027966 -0.2787452 1.0875901 -0.09463010728359222 -0.974482536315918 -0.20354048907756805 22.0 40.0 1.0 2.0
5.046454 -0.3341442 1.0978518 -0.0897359624505043 -0.9764007329940796 -0.1964409500360489 25.0 40.0 1.0 2.0
4.929913 -0.27804157 1.2073092 -0.07557035237550735 -0.981420636177063 -0.17635928094387054 26.0 41.0 1.0 0.0
4.9539123 -0.33141598 1.2140337 -0.05270957201719284 -0.9846377968788147 -0.1664634644985199 26.0 41.0 1.0 2.0
5.2974634 -0.30187491 1.4445053 -0.04703153297305107 -0.9818445444107056 -0.18376481533050537 32.0 42.0 1.0 5.0
5.2979026 -0.35756993 1.4456283 -0.037223126739263535 -0.9820148348808289 -0.1850978285074234 33.0 42.0 1.0 5.0
4.737186 -0.27450639 1.4272524 -0.1593657284975052 -0.3392879068851471 -0.9270848631858826 190.0 43.0 1.0 1.0
4.7073412 -0.32228029 1.4192423 -0.11059901118278503 -0.34157177805900574 -0.9333255290985107 190.0 43.0 1.0 1.0
4.3942308 -0.25871673 1.4518616 -0.12361955642700195 -0.07942786812782288 -0.989145815372467 142.0 44.0 1.0 1.0
4.3837414 -0.30418351 1.449412 -0.12105287611484528 -0.049248527735471725 -0.9914236664772034 130.0 44.0 1.0 1.0
4.0832057 -0.24421416 1.4712803 -0.030446529388427734 -0.3650713860988617 -0.9304815530776978 211.0 45.0 1.0 1.0
4.0767097 -0.28668243 1.4699798 -0.058096032589673996 -0.4030306935310364 -0.91334068775177 220.0 45.0 1.0 1.0
4.0200701 -0.24458961 1.5708735 -0.1297539472579956 -0.21182353794574738 -0.9686561822891235 255.0 46.0 1.0 1.0
4.0136094 -0.2863965 1.5694722 -0.06724518537521362 -0.2502988874912262 -0.9658305644989014 255.0 46.0 1.0 1.0
3.5675433 -0.22065938 1.5067592 -0.10620764642953873 -0.10613406449556351 -0.9886634945869446 255.0 47.0 1.0 1.0
3.5503724 -0.25694701 1.5005844 -0.12073463946580887 -0.11683911830186844 -0.9857848882675171 255.0 47.0 1.0 1.0
3.5083168 0.47794038 1.6106912 -0.08171963691711426 -0.060216087847948074 -0.9948346614837646 247.0 48.0 1.0 1.0
3.4734437 0.43613401 1.59251 -0.15660840272903442 -0.06410619616508484 -0.9855780601501465 232.0 48.0 1.0 1.0
3.2664559 0.44821543 1.6114948 -0.12858045101165771 -0.08413996547460556 -0.98812335729599 241.0 49.0 1.0 1.0
3.2674439 0.413544 1.6097871 -0.14145541191101074 -0.05926470458507538 -0.9881690740585327 247.0 49.0 1.0 1.0
3.0794828 0.42620176 1.6289836 -0.1174800768494606 -0.02933456189930439 -0.9926419258117676 247.0 50.0 1.0 1.0
3.0838141 0.39394662 1.6290311 -0.1283692866563797 -0.04037810489535332 -0.9909040927886963 255.0 50.0 1.0 1.0
2.900419 0.40586355 1.6422738 -0.14700107276439667 -0.03363623842597008 -0.9885642528533936 253.0 51.0 1.0 1.0
2.9080052 0.37593892 1.6442769 -0.15535257756710052 -0.05687878653407097 -0.9862203001976013 255.0 51.0 1.0 1.0
2.7261405 0.38514304 1.6497601 -0.15503670275211334 -0.06479158997535706 -0.985781729221344 255.0 52.0 1.0 1.0
2.7164605 0.35478336 1.6415709 -0.07882271707057953 -0.014853164553642273 -0.9967780113220215 255.0 52.0 1.0 1.0
2.5665302 0.36695668 1.6582712 -0.13256870210170746 -0.057316526770591736 -0.9895151257514954 255.0 53.0 1.0 1.0
2.5702689 0.34007636 1.6583109 -0.1418362706899643 -0.05724230036139488 -0.9882336854934692 255.0 53.0 1.0 1.0
2.4108896 0.34963739 1.6628623 -0.14682342112064362 -0.02385661192238331 -0.9888749718666077 255.0 54.0 1.0 1.0
2.4144554 0.32438785 1.6628997 -0.1905173510313034 -0.0687444806098938 -0.9792739152908325 255.0 54.0 1.0 1.0
2.2820783 0.3356635 1.6798005 -0.14040140807628632 -0.06653247773647308 -0.9878566265106201 255.0 55.0 1.0 1.0
2.263097 0.30864635 1.6633379 -0.19484621286392212 -0.10571881383657455 -0.9751197099685669 255.0 55.0 1.0 1.0
2.1346242 0.31944239 1.6771417 -0.17773765325546265 -0.05303812026977539 -0.9826475381851196 253.0 56.0 1.0 1.0
2.1316376 0.29620034 1.672262 -0.13703714311122894 -0.011341230012476444 -0.9905009269714355 253.0 56.0 1.0 1.0
2.0248225 0.30899659 1.6991954 -0.1481255143880844 -0.08989771455526352 -0.9848742485046387 255.0 57.0 1.0 1.0
2.0036244 0.28426054 1.6787781 -0.09819760918617249 -0.09512713551521301 -0.9906100034713745 250.0 57.0 1.0 1.0
1.8938197 0.29485643 1.6989707 -0.13363836705684662 -0.08729276806116104 -0.9871782064437866 253.0 58.0 1.0 1.0
1.8909218 0.27414656 1.693689 -0.12460684776306152 -0.08739635348320007 -0.9883497357368469 250.0 58.0 1.0 1.0
1.7743015 0.28268847 1.7053728 -0.10105372965335846 -0.04408148676156998 -0.9939039349555969 255.0 59.0 1.0 1.0
1.7829326 0.26497996 1.7109128 -0.10105372965335846 -0.04408148676156998 -0.9939039349555969 255.0 59.0 1.0 1.0
1.6518425 0.27031678 1.7047126 -0.13033230602741241 -0.08141855895519257 -0.9881216883659363 253.0 60.0 1.0 1.0
1.6518525 0.25258607 1.701882 -0.12460799515247345 -0.0610760822892189 -0.9903244376182556 250.0 60.0 1.0 1.0
1.5348245 0.25916386 1.7054511 -0.08424782007932663 -0.03370986133813858 -0.9958744049072266 253.0 61.0 1.0 1.0
1.5481271 0.2448177 1.7173026 -0.15881673991680145 -0.0334007665514946 -0.9867429733276367 255.0 61.0 1.0 1.0
1.4326546 0.25018221 1.7205845 -0.15922607481479645 -0.061753589659929276 -0.9853088855743408 253.0 62.0 1.0 1.0
1.4530377 0.23817673 1.7420075 -0.12985263764858246 -0.03181489557027817 -0.9910227656364441 255.0 62.0 1.0 1.0
1.3331126 0.24241315 1.7392831 -0.14309149980545044 -0.09586779773235321 -0.9850555062294006 255.0 63.0 1.0 1.0
1.3307768 0.22760484 1.7329887 -0.14309149980545044 -0.09586779773235321 -0.9850555062294006 255.0 63.0 1.0 1.0
8.1695337 1.0896063 -1.8657143 -0.6422647833824158 -0.41736534237861633 0.6428858041763306 20.0 23.0 2.0 1.0
9.6071444 1.2776963 -1.9319096 -0.02317468822002411 -0.9996354579925537 -0.013853644020855427 35.0 24.0 2.0 1.0
11.162663 1.4780835 -1.942425 -0.27302515506744385 -0.9608262181282043 0.047648441046476364 25.0 25.0 2.0 1.0
10.95806 1.4474181 -1.6136369 0.03267329931259155 -0.974346399307251 -0.22266915440559387 15.0 26.0 2.0 5.0
10.964842 1.3316783 -1.612313 -0.02669183723628521 -0.9955853223800659 -0.08998555690050125 12.0 26.0 2.0 5.0
18.067499 2.381542 -2.1857834 0.17313790321350098 -0.9837361574172974 0.04781617224216461 24.0 27.0 2.0 6.0
18.048174 2.1869974 -2.1802676 -0.016021419316530228 -0.9933279752731323 0.11420542001724243 23.0 27.0 2.0 6.0
10.906992 1.3158001 -1.0321996 0.13825161755084991 -0.9792348742485046 0.1482754349708557 6.0 28.0 2.0 5.0
19.981253 2.6190093 -0.85689569 -0.019956491887569427 -0.9994465112686157 -0.02661661058664322 8.0 30.0 2.0 6.0
11.019653 -0.58136725 0.097800642 0.006365634500980377 -0.9999776482582092 0.002050354378297925 11.0 32.0 2.0 5.0
11.040963 -0.69845271 0.09819936 0.020428048446774483 -0.9997841119766235 0.003790037939324975 16.0 32.0 2.0 5.0
11.057309 -0.58683944 0.3801671 -0.08727826923131943 -0.9948946833610535 -0.05066618323326111 10.0 33.0 2.0 5.0
11.022686 -0.70080644 0.37935326 -0.03379976749420166 -0.9990596771240234 -0.027154145762324333 9.0 33.0 2.0 5.0
11.056015 -0.58640599 0.66280019 -0.021426532417535782 -0.9985485672950745 0.04941192641854286 11.0 34.0 2.0 5.0
11.029393 -0.70086765 0.6617524 -0.12847256660461426 -0.9812497496604919 0.1436791867017746 7.0 34.0 2.0 5.0
11.12697 -0.59171122 0.95282376 0.020057614892721176 -0.9920721054077148 0.12405937165021896 8.0 35.0 2.0 5.0
7.4290981 -0.47494632 0.63636917 -0.07456418871879578 -0.9895428419113159 0.12347177416086197 133.0 35.0 2.0 6.0
7.4941974 -0.40271464 0.83515531 -0.04406103491783142 -0.9962551593780518 0.0743931382894516 25.0 36.0 2.0 6.0
7.4499435 -0.47862726 0.83082676 -0.011591631919145584 -0.9973098635673523 0.0723794475197792 130.0 36.0 2.0 6.0
7.5633183 -0.41248327 1.239382 0.0910898819565773 -0.8510995507240295 0.5170416235923767 18.0 38.0 2.0 6.0
7.5113559 -0.48860168 1.2317253 0.05367192253470421 -0.934739351272583 0.3512573838233948 52.0 38.0 2.0 6.0
21.438396 -1.1657684 4.0851331 0.02883867174386978 -0.9934959411621094 0.11015518754720688 16.0 39.0 2.0 6.0
7.0025859 -0.45809627 1.3344859 0.06903066486120224 -0.9958238005638123 0.059747349470853806 39.0 39.0 2.0 5.0
21.484921 -1.1788197 4.6749158 -0.09463010728359222 -0.974482536315918 -0.20354048907756805 25.0 40.0 2.0 6.0
7.5037541 -0.49417108 1.6330479 -0.0897359624505043 -0.9764007329940796 -0.1964409500360489 17.0 40.0 2.0 6.0
20.695625 -1.1494776 5.0725718 -0.06540979444980621 -0.9805667400360107 -0.18496112525463104 18.0 41.0 2.0 6.0
20.767733 -1.3717633 5.0937757 -0.05270957201719284 -0.9846377968788147 -0.1664634644985199 19.0 41.0 2.0 6.0
21.492582 -1.2078111 5.8649654 -0.04703153297305107 -0.9818445444107056 -0.18376481533050537 21.0 42.0 2.0 6.0
1.2189012 -0.16929054 -1.6104645 0.14269207417964935 0.11213332414627075 0.9833946824073792 255.0 0.0 1.0 1.0
1.206089 -0.15477778 -1.5913904 0.08592239767313004 0.05500972270965576 0.9947820901870728 255.0 0.0 1.0 1.0
1.3243251 -0.17416897 -1.6086272 0.1745632439851761 -0.02672315388917923 0.9842832684516907 255.0 1.0 1.0 1.0
1.3209256 -0.15974826 -1.6024832 0.1745632439851761 -0.02672315388917923 0.9842832684516907 255.0 1.0 1.0 1.0
1.4272578 -0.17932035 -1.6045836 0.18656307458877563 0.09686125814914703 0.9776564836502075 255.0 2.0 1.0 1.0
1.4236746 -0.1638239 -1.598639 0.11357661336660385 0.09795426577329636 0.9886886477470398 255.0 2.0 1.0 1.0
1.5521796 -0.18672596 -1.6195868 0.13251636922359467 0.08202555775642395 0.9877810478210449 255.0 3.0 1.0 1.0
1.5429293 -0.16933794 -1.6080837 0.13245610892772675 0.08328714966773987 0.9876834750175476 255.0 3.0 1.0 1.0
1.6715795 -0.19375256 -1.6247134 0.08954112231731415 0.06954818964004517 0.9935518503189087 255.0 4.0 1.0 1.0
1.6734344 -0.17628679 -1.6247351 0.12069645524024963 0.09762627631425858 0.9878772497177124 255.0 4.0 1.0 1.0
1.8062658 -0.2024221 -1.6386079 0.154855415225029 0.01797482930123806 0.9877736568450928 255.0 5.0 1.0 1.0
1.790478 -0.18179952 -1.6225458 0.16774044930934906 0.041518330574035645 0.9849566221237183 255.0 5.0 1.0 1.0
1.9329168 -0.20997024 -1.6394184 0.1482660174369812 0.04793133586645126 0.987785279750824 255.0 6.0 1.0 1.0
1.9197158 -0.18831806 -1.6265392 0.1482660174369812 0.04793133586645126 0.987785279750824 253.0 6.0 1.0 1.0
2.05984 -0.21782728 -1.6356435 0.16691838204860687 0.07420455664396286 0.9831744432449341 253.0 7.0 1.0 1.0
2.0619254 -0.19629474 -1.6356705 0.16691838204860687 0.07420455664396286 0.9831744432449341 255.0 7.0 1.0 1.0
2.225152 -0.22964823 -1.6561319 0.0892903059720993 0.00029683311004191637 0.996005654335022 255.0 8.0 1.0 1.0
2.2145505 -0.20522897 -1.6466327 0.15048834681510925 0.06233131140470505 0.9866448044776917 255.0 8.0 1.0 1.0
2.3891745 -0.24057655 -1.6673154 0.13815349340438843 0.04318859055638313 0.9894686937332153 255.0 9.0 1.0 1.0
2.3783927 -0.21444407 -1.6582137 0.13231521844863892 0.020521968603134155 0.9909952282905579 255.0 9.0 1.0 1.0
2.5415347 -0.251412 -1.6625189 0.17508012056350708 0.08844750374555588 0.9805732369422913 247.0 10.0 1.0 1.0
2.5439448 -0.22483373 -1.6625524 0.08606848865747452 0.02823442779481411 0.9958890676498413 253.0 10.0 1.0 1.0
2.7355759 -0.26524255 -1.6765889 0.12537652254104614 0.006921511143445969 0.9920851588249207 241.0 11.0 1.0 1.0
2.7381201 -0.23663169 -1.6766249 0.11813345551490784 0.011070302687585354 0.9929360151290894 250.0 11.0 1.0 1.0
2.9528797 -0.28106406 -1.6931703 0.09873758256435394 0.005373720079660416 0.9950990080833435 241.0 12.0 1.0 1.0
2.9313488 -0.24817085 -1.679319 0.10576845705509186 0.012478393502533436 0.9943124651908875 244.0 12.0 1.0 1.0
3.1579249 -0.2961719 -1.6933059 0.14672671258449554 0.0494505800306797 0.98794025182724 235.0 13.0 1.0 1.0
3.1537371 -0.26256308 -1.6895776 0.10915932059288025 0.032758478075265884 0.993484377861023 229.0 13.0 1.0 1.0
3.4252267 -0.31701663 -1.7146066 0.13005292415618896 0.05242963880300522 0.9901199340820312 223.0 14.0 1.0 1.0
3.406868 -0.27945983 -1.7039391 0.12604759633541107 0.03682988882064819 0.9913403391838074 217.0 14.0 1.0 1.0
3.709861 -0.33883807 -1.7302986 0.1373763233423233 0.13124069571495056 0.9817859530448914 214.0 15.0 1.0 1.0
3.6914258 -0.29830018 -1.7202321 0.09269363433122635 0.07693663239479065 0.9927178025245667 202.0 15.0 1.0 1.0
3.7690139 0.40354532 -1.6409876 0.09735491871833801 0.02477390132844448 0.9949412941932678 217.0 16.0 1.0 1.0
3.7171171 0.43729007 -1.6203803 0.15564899146556854 0.007456720340996981 0.9877843856811523 193.0 16.0 1.0 1.0
4.0929031 0.43460268 -1.6505566 0.12167798727750778 -0.5032561421394348 0.8555277585983276 232.0 17.0 1.0 1.0
4.0696106 0.47520888 -1.6431729 0.07320273667573929 -0.0034418327268213034 0.9973111152648926 220.0 17.0 1.0 1.0
4.0803752 0.42840195 -1.5177866 0.034417103976011276 -0.9990018606185913 0.028474517166614532 255.0 18.0 1.0 1.0
4.0755839 0.47105876 -1.5178486 0.05224110931158066 -0.9950736165046692 0.08425729721784592 255.0 18.0 1.0 1.0
4.044414 0.4204717 -1.3817276 0.03315548971295357 -0.9936703443527222 -0.10733162611722946 255.0 19.0 1.0 1.0
4.0622816 0.46537334 -1.3895123 0.04886225610971451 -0.9941463470458984 -0.09636148065328598 255.0 19.0 1.0 1.0
4.0645413 0.4191851 -1.2688407 0.02945679984986782 -0.9848612546920776 0.1708233505487442 255.0 20.0 1.0 1.0
4.067441 0.46255356 -1.2712752 0.05621900409460068 -0.989715576171875 0.13153930008411407 255.0 20.0 1.0 1.0
4.2574339 0.43578938 -1.2068177 0.14296060800552368 0.033358972519636154 0.9891660809516907 181.0 21.0 1.0 1.0
4.2449107 0.47942817 -1.2047107 0.1688249260187149 0.07447339594364166 0.9828285574913025 175.0 21.0 1.0 1.0
4.5540361 0.46274391 -1.1616518 0.48319706320762634 -0.8649770021438599 0.13540810346603394 255.0 22.0 1.0 1.0
4.5296035 0.50817579 -1.1568007 0.7218081951141357 -0.6195085048675537 0.3085487186908722 250.0 22.0 1.0 1.0
4.5828037 0.462657 -1.0424551 0.26739299297332764 -0.9166261553764343 0.2971492111682892 253.0 23.0 1.0 1.0
4.55825 0.50839096 -1.0381095 0.47517257928848267 -0.8129812479019165 0.3365597724914551 250.0 23.0 1.0 1.0
4.655139 0.4677766 -0.93242234 0.2060469388961792 -0.9022069573402405 0.37890297174453735 255.0 24.0 1.0 1.0
4.638217 0.51514173 -0.93014741 0.3978313207626343 -0.8344763517379761 0.38128674030303955 255.0 24.0 1.0 1.0
4.7053804 0.46975732 -0.81559986 0.33418846130371094 -0.8219543099403381 0.4612041413784027 255.0 25.0 1.0 1.0
4.6844625 0.51721346 -0.81295186 0.4437355399131775 -0.7868229150772095 0.4289619028568268 247.0 25.0 1.0 1.0
4.8273191 0.48057169 -0.70810741 0.25141963362693787 -0.5851678848266602 0.7709518074989319 112.0 26.0 1.0 1.0
4.8534222 0.53456104 -0.7128014 0.2838972210884094 -0.2914067804813385 0.9135012626647949 208.0 26.0 1.0 1.0
4.9546356 0.49097303 -0.59715682 0.2380775511264801 -0.9710396528244019 -0.02002597227692604 229.0 27.0 1.0 1.0
4.9491544 0.54279137 -0.59723175 -0.5588065981864929 -0.8291677832603455 0.014698191545903683 244.0 27.0 1.0 1.0
4.9644427 0.49039444 -0.46874866 -0.14407408237457275 -0.7429642081260681 0.6536412835121155 250.0 28.0 1.0 1.0
4.9510517 0.54144073 -0.46807575 -0.6120832562446594 -0.7728313207626343 0.16758836805820465 190.0 28.0 1.0 1.0
5.0027122 0.49264577 -0.34258348 -0.6552160382270813 -0.7465774416923523 -0.1153859943151474 255.0 29.0 1.0 1.0
4.9932475 0.544532 -0.34238744 -0.6497474908828735 -0.7513652443885803 0.11523213982582092 136.0 29.0 1.0 2.0
4.9700718 0.48870087 -0.21249509 -0.5852515697479248 -0.8077395558357239 0.0709753930568695 253.0 30.0 1.0 1.0
5.0361223 0.54855871 -0.21562517 -0.6114466190338135 -0.7912217378616333 0.010064047761261463 37.0 30.0 1.0 2.0
4.9699173 0.48799318 -0.085352927 -0.73516845703125 -0.6717836260795593 0.09074189513921738 211.0 31.0 1.0 1.0
5.0320568 0.54740953 -0.086583681 -0.06218041852116585 -0.9890167117118835 0.1340876817703247 26.0 31.0 1.0 2.0
5.0213146 -0.42633992 0.04451856 -0.006081817671656609 -0.996444821357727 0.08402886241674423 100.0 32.0 1.0 2.0
5.0414014 -0.37493584 0.044594932 0.019045012071728706 -0.9855713248252869 0.16818588972091675 94.0 32.0 1.0 2.0
5.0104423 -0.42702699 0.17245014 0.045261550694704056 -0.9986357688903809 0.02603549137711525 30.0 33.0 1.0 2.0
5.0145822 -0.37456673 0.17238356 -0.07662039995193481 -0.9963392019271851 0.0379122830927372 29.0 33.0 1.0 2.0
5.0283093 -0.42836758 0.30186337 -0.03626043722033501 -0.9989311695098877 0.028662992641329765 28.0 34.0 1.0 2.0
4.9926434 -0.37278929 0.29940239 0.005899546667933464 -0.9997773170471191 0.02026105485856533 28.0 34.0 1.0 2.0
5.0506949 -0.43097344 0.43316126 -0.0398482084274292 -0.9981215000152588 0.04653525352478027 27.0 35.0 1.0 2.0
5.0389781 -0.37691689 0.43172932 -0.045799363404512405 -0.9989413619041443 0.004298906773328781 28.0 35.0 1.0 2.0
