ply
format ascii 1.0
element vertex 418
property float x
property float y
property float z
property float nx
property float ny
property float nz
property float intensity
property float ring
property float return
property float label
end_header
-1.0119503 -0.356365 -0.53764701 0.01357619371265173 0.9991589188575745 -0.038692545145750046 255.0 14.0 1.0 1.0
-1.0117841 -0.34563524 -0.49933738 0.009874274022877216 0.9999266266822815 -0.007023893296718597 255.0 15.0 1.0 1.0
-1.0149412 -0.35862857 -0.50272787 0.009874274022877216 0.9999266266822815 -0.007023893296718597 255.0 15.0 1.0 1.0
-1.0112814 -0.58868515 -0.50902241 0.014077111147344112 0.9992590546607971 -0.03582414612174034 255.0 16.0 1.0 1.0
-1.0239621 -0.61051446 -0.51860112 0.024951310828328133 0.9990468621253967 -0.03581653907895088 255.0 16.0 1.0 1.0
-1.0266989 -0.59622842 -0.4785178 0.006945262663066387 0.9993330240249634 -0.03585062921047211 255.0 17.0 1.0 1.0
-1.0108311 -0.60126138 -0.47403336 0.006945262663066387 0.9993330240249634 -0.03585062921047211 255.0 17.0 1.0 1.0
-1.02528 -0.59373963 -0.44063097 0.014938940294086933 0.9992383718490601 -0.03604821488261223 255.0 18.0 1.0 1.0
-1.0254533 -0.60827136 -0.44342309 0.014934520237147808 0.9989427328109741 -0.043478790670633316 255.0 18.0 1.0 1.0
-1.0357465 -0.59836119 -0.40875879 0.022863246500492096 0.9983910322189331 -0.05189159885048866 255.0 19.0 1.0 1.0
-1.0098776 -0.5976125 -0.4009982 0.022863246500492096 0.9983910322189331 -0.05189159885048866 255.0 19.0 1.0 1.0
-1.0221307 -0.58931601 -0.36857852 0.018934203311800957 0.9998061060905457 -0.0053991349413990974 255.0 20.0 1.0 1.0
-1.01919 -0.60193044 -0.36977434 0.018934203311800957 0.9998061060905457 -0.0053991349413990974 255.0 20.0 1.0 1.0
-1.0240059 -0.58921522 -0.33530203 0.012211165390908718 0.9988760352134705 -0.04579785838723183 255.0 21.0 1.0 1.0
-1.0111485 -0.59600037 -0.33311963 0.012211165390908718 0.9988760352134705 -0.04579785838723183 255.0 21.0 1.0 1.0
-1.0183774 -0.5848031 -0.30011362 0.01445208303630352 0.999241054058075 -0.036173414438962936 255.0 22.0 1.0 1.0
-1.0155373 -0.59740144 -0.30110711 -0.0014498134842142463 0.9999526739120483 -0.009624206461012363 255.0 22.0 1.0 1.0
-1.0319684 -0.59165716 -0.27129996 0.00034994404995813966 0.9993345141410828 -0.036476098001003265 255.0 23.0 1.0 1.0
-1.0089017 -0.59255862 -0.26685342 0.00034994404995813966 0.9993345141410828 -0.036476098001003265 255.0 23.0 1.0 1.0
-1.0141988 -0.58077359 -0.23492607 0.017163414508104324 0.9814399480819702 -0.19100013375282288 255.0 24.0 1.0 1.0
-1.0182089 -0.59731525 -0.23729484 0.017163414508104324 0.9814399480819702 -0.19100013375282288 255.0 24.0 1.0 1.0
-1.0092874 -0.57703424 -0.20248167 -0.0014654698316007853 0.9811893105506897 -0.19304259121418 255.0 25.0 1.0 1.0
-0.999789 -0.58558106 -0.2017976 0.02974027954041958 0.9955006241798401 -0.08996744453907013 255.0 25.0 1.0 1.0
-0.99317998 -0.56714475 -0.16884111 0.02974027954041958 0.9955006241798401 -0.08996744453907013 255.0 26.0 1.0 1.0
-0.99060237 -0.5795123 -0.16942835 -0.032015908509492874 0.9900478720664978 -0.13704082369804382 255.0 26.0 1.0 1.0
-1.0140487 -0.57859755 -0.14194418 -0.0322902649641037 0.9985320568084717 -0.04348619654774666 238.0 27.0 1.0 1.0
-1.0113623 -0.59118903 -0.14243005 -0.0322902649641037 0.9985320568084717 -0.04348619654774666 235.0 27.0 1.0 1.0
-0.98258764 -0.55997515 -0.10809879 0.027980821207165718 0.9926835298538208 0.11745841801166534 255.0 28.0 1.0 1.0
-0.98354787 -0.57424921 -0.10886341 0.06009580194950104 0.9912775754928589 0.11729206144809723 255.0 28.0 1.0 1.0
-0.9917053 -0.56494874 -0.079610616 0.06009580194950104 0.9912775754928589 0.11729206144809723 255.0 29.0 1.0 1.0
-1.0029677 -0.5853585 -0.081006899 0.016079073771834373 0.9994432926177979 0.029234690591692924 255.0 29.0 1.0 1.0
-1.0002908 -0.5693841 -0.050801065 0.028165629133582115 0.9992399215698242 -0.02695358544588089 255.0 30.0 1.0 1.0
-1.0046306 -0.58586633 -0.051334009 0.010970048606395721 0.999576210975647 -0.026962656527757645 255.0 30.0 1.0 1.0
-0.99413776 -0.56588978 -0.021351464 0.01952335052192211 0.999267041683197 -0.03292679414153099 255.0 31.0 1.0 1.0
-0.98815835 -0.57626897 -0.021354113 0.004585527814924717 0.9994470477104187 -0.032932721078395844 255.0 31.0 1.0 1.0
-0.97099745 -0.33778834 0.0072921491 0.017368365079164505 0.9996324181556702 -0.0208181980997324 255.0 32.0 1.0 1.0
-0.98246419 -0.35335085 0.0073997672 0.017368365079164505 0.9996324181556702 -0.0208181980997324 255.0 32.0 1.0 1.0
-1.0046127 -0.34909695 0.034632169 0.03519345074892044 0.9980527758598328 -0.05149923637509346 255.0 33.0 1.0 1.0
-0.97456539 -0.35013753 0.033719271 0.03519345074892044 0.9980527758598328 -0.05149923637509346 255.0 33.0 1.0 1.0
-0.99219573 -0.34460053 0.061021622 0.025566555559635162 0.9986858367919922 -0.04441705718636513 255.0 34.0 1.0 1.0
-0.99980986 -0.35901809 0.061712161 0.025566555559635162 0.9986858367919922 -0.04441705718636513 255.0 34.0 1.0 1.0
-1.0054632 -0.34921846 0.089131229 0.014239206910133362 0.9966386556625366 -0.08067698776721954 255.0 35.0 1.0 1.0
-0.99424982 -0.35703316 0.088460021 0.014239206910133362 0.9966386556625366 -0.08067698776721954 255.0 35.0 1.0 1.0
-0.9955889 -0.34541199 0.11544161 0.03479563444852829 0.9988002777099609 -0.03445778787136078 255.0 36.0 1.0 1.0
-0.97320509 -0.34910581 0.11326116 0.0099713783711195 0.9996533989906311 -0.024366876110434532 255.0 36.0 1.0 1.0
-0.97758687 -0.33879733 0.14039505 0.02798641286790371 0.9963850378990173 -0.08020956069231033 255.0 37.0 1.0 1.0
-0.99637705 -0.35703442 0.14361581 0.02798641286790371 0.9963850378990173 -0.08020956069231033 255.0 37.0 1.0 1.0
-1.003897 -0.34733573 0.17196362 0.014265836216509342 0.9985021352767944 -0.05281990021467209 255.0 38.0 1.0 1.0
-0.96302712 -0.34452978 0.16557054 0.014265836216509342 0.9985021352767944 -0.05281990021467209 255.0 38.0 1.0 1.0
-0.98841381 -0.34141281 0.19702747 0.014284313656389713 0.9997954368591309 -0.014321548864245415 255.0 39.0 1.0 1.0
-0.99219108 -0.354386 0.19850378 0.014284313656389713 0.9997954368591309 -0.014321548864245415 255.0 39.0 1.0 1.0
-0.97967613 -0.33802471 0.22321703 0.02028661221265793 0.9974804520606995 -0.06797876954078674 255.0 40.0 1.0 1.0
-0.96871942 -0.34563521 0.22152892 0.02028661221265793 0.9974804520606995 -0.06797876954078674 255.0 40.0 1.0 1.0
-0.97774988 -0.33660877 0.2511026 0.01662692241370678 0.9993855357170105 -0.030856218189001083 255.0 41.0 1.0 1.0
-0.97051257 -0.34552309 0.25015476 0.01662692241370678 0.9993855357170105 -0.030856218189001083 255.0 41.0 1.0 1.0
-0.97148192 -0.3337054 0.27788594 0.02193787880241871 0.998898446559906 -0.04147930070757866 255.0 42.0 1.0 1.0
-0.95702153 -0.33998069 0.27474886 0.02193787880241871 0.998898446559906 -0.04147930070757866 255.0 42.0 1.0 1.0
-0.97898853 -0.3353411 0.30951038 0.018835291266441345 0.9985899925231934 -0.0496298149228096 255.0 43.0 1.0 1.0
-0.96458942 -0.3417331 0.3060683 0.018835291266441345 0.9985899925231934 -0.0496298149228096 255.0 43.0 1.0 1.0
-0.98197758 -0.33542058 0.34051824 0.028314704075455666 0.9978563785552979 -0.05899954214692116 255.0 44.0 1.0 1.0
-0.96408021 -0.34061882 0.33552623 0.01669757068157196 0.9976005554199219 -0.06718862801790237 255.0 44.0 1.0 1.0
-0.96261036 -0.32788223 0.36407498 0.02623068168759346 0.9959326386451721 -0.0861983373761177 255.0 45.0 1.0 1.0
-0.97333634 -0.34294614 0.36946288 0.02623068168759346 0.9959326386451721 -0.0861983373761177 255.0 45.0 1.0 1.0
-0.98873854 -0.33563793 0.40550345 0.026227647438645363 0.9958174228668213 -0.08751940727233887 255.0 46.0 1.0 1.0
-0.97461885 -0.34226453 0.40115556 0.026227647438645363 0.9958174228668213 -0.08751940727233887 255.0 46.0 1.0 1.0
-0.93981987 -0.31813657 0.41663566 0.020801503211259842 0.9976879954338074 -0.06469998508691788 255.0 47.0 1.0 1.0
-0.96080786 -0.33648768 0.42747056 0.02387133240699768 0.9956750273704529 -0.08978486061096191 255.0 47.0 1.0 1.0
-0.96560061 -0.55739242 0.50543916 0.015289581380784512 0.9960837364196777 -0.08708282560110092 255.0 48.0 1.0 1.0
-0.9691242 -0.57303101 0.51039094 0.021075161173939705 0.9964638948440552 -0.08133630454540253 255.0 48.0 1.0 1.0
-0.94940007 -0.5493769 0.5344063 0.021112892776727676 0.9982478618621826 -0.05527786538004875 253.0 49.0 1.0 1.0
-0.95906782 -0.56845087 0.54316288 0.021112892776727676 0.9982478618621826 -0.05527786538004875 255.0 49.0 1.0 1.0
-0.9445824 -0.54813975 0.57052863 0.02819421887397766 0.9955469965934753 -0.08995164185762405 250.0 50.0 1.0 1.0
-0.93879575 -0.55799657 0.57052618 0.02819421887397766 0.9955469965934753 -0.08995164185762405 244.0 50.0 1.0 1.0
-0.94449413 -0.54986209 0.61111993 0.030923882499337196 0.9978201389312744 -0.05829716846346855 244.0 51.0 1.0 1.0
-0.94768643 -0.5650807 0.61697388 0.030923882499337196 0.9978201389312744 -0.05829716846346855 241.0 51.0 1.0 1.0
-0.94591838 -0.55247009 0.65466177 0.033713195472955704 0.9962075352668762 -0.08021105825901031 250.0 52.0 1.0 1.0
-0.94598079 -0.56586444 0.65876323 0.02687368355691433 0.9976286888122559 -0.06336179375648499 247.0 52.0 1.0 1.0
-0.9279452 -0.54437524 0.68639815 0.0573449581861496 0.9942776560783386 -0.09013094007968903 235.0 53.0 1.0 1.0
-0.93665355 -0.56273901 0.69715273 0.037795260548591614 0.9959285855293274 -0.08183933794498444 241.0 53.0 1.0 1.0
-0.94001031 -0.55411083 0.74306828 0.04285532981157303 0.9972155690193176 -0.061028722673654556 250.0 54.0 1.0 1.0
-0.93982381 -0.56733507 0.74756867 0.04285532981157303 0.9972155690193176 -0.061028722673654556 241.0 54.0 1.0 1.0
-0.93281657 -0.55251718 0.78777826 0.040327392518520355 0.9985156059265137 -0.0366092324256897 247.0 55.0 1.0 1.0
-0.93528748 -0.56728244 0.79482973 0.040327392518520355 0.9985156059265137 -0.0366092324256897 255.0 55.0 1.0 1.0
-0.93153363 -0.55506653 0.84080803 0.02357109822332859 0.9991323351860046 -0.03433668613433838 235.0 56.0 1.0 1.0
-0.9445675 -0.57630754 0.85796297 0.02964789606630802 0.9986637234687805 -0.04232966899871826 253.0 56.0 1.0 1.0
-0.92485106 -0.55482018 0.89289588 0.01651826873421669 0.9990622997283936 -0.040020741522312164 244.0 57.0 1.0 1.0
-0.92949998 -0.57091725 0.90309691 0.01651826873421669 0.9990622997283936 -0.040020741522312164 244.0 57.0 1.0 1.0
-0.92328596 -0.55762458 0.95427936 0.009502993896603584 0.9984951615333557 -0.054009802639484406 244.0 58.0 1.0 1.0
-0.92759687 -0.57355601 0.9648791 0.009502993896603584 0.9984951615333557 -0.054009802639484406 247.0 58.0 1.0 1.0
-0.92266905 -0.56188834 1.0235103 0.010092712007462978 0.99927818775177 -0.036622919142246246 247.0 59.0 1.0 1.0
-0.92413574 -0.57611907 1.0317615 0.010092712007462978 0.99927818775177 -0.036622919142246246 244.0 59.0 1.0 1.0
-0.91986674 -0.56593132 1.0980204 0.014892710372805595 0.9989666938781738 -0.04293900728225708 255.0 60.0 1.0 1.0
-0.92101991 -0.58000755 1.1065736 0.014892710372805595 0.9989666938781738 -0.04293900728225708 253.0 60.0 1.0 1.0
-0.91432947 -0.56915659 1.1780396 0.005608126055449247 0.9992172718048096 -0.03915693983435631 253.0 61.0 1.0 1.0
-0.91971052 -0.58594108 1.1927986 0.00021184480283409357 0.9976612329483032 -0.06835123151540756 255.0 61.0 1.0 1.0
-0.91834718 -0.57903421 1.2822953 0.03765595704317093 0.9946408271789551 -0.09628920257091522 255.0 62.0 1.0 1.0
-0.92093116 -0.59421349 1.2945045 0.029186641797423363 0.9953180551528931 -0.09214160591363907 255.0 62.0 1.0 1.0
-0.91178501 -0.58406824 1.3876808 0.016083525493741035 0.9944593906402588 -0.10388439893722534 255.0 63.0 1.0 1.0
-0.91386247 -0.59896809 1.4002931 0.016083525493741035 0.9944593906402588 -0.10388439893722534 255.0 63.0 1.0 1.0
-0.520518 -0.14115092 -0.71046084 0.22172847390174866 0.022372150793671608 0.9748518466949463 255.0 0.0 1.0 1.0
-0.525989 -0.1485692 -0.7200225 0.22172847390174866 0.022372150793671608 0.9748518466949463 255.0 0.0 1.0 1.0
-0.55671066 -0.15506564 -0.70032495 0.27913567423820496 0.10883559286594391 0.9540640115737915 253.0 1.0 1.0 1.0
-0.55260783 -0.1601834 -0.69724202 0.27913567423820496 0.10883559286594391 0.9540640115737915 253.0 1.0 1.0 1.0
-0.58872581 -0.1674428 -0.68683171 0.19546140730381012 0.03014264814555645 0.9802480936050415 244.0 2.0 1.0 1.0
-0.58183336 -0.17209449 -0.68086118 0.2208280712366104 0.05661904439330101 0.9736679196357727 232.0 2.0 1.0 1.0
-0.63848925 -0.18499169 -0.69259781 0.19545115530490875 0.03183098882436752 0.9801967144012451 244.0 3.0 1.0 1.0
-0.63651359 -0.19167204 -0.69260085 0.19545115530490875 0.03183098882436752 0.9801967144012451 244.0 3.0 1.0 1.0
-0.68561006 -0.20151787 -0.69378471 0.21858666837215424 0.06324730068445206 0.9737657308578491 250.0 4.0 1.0 1.0
-0.69169247 -0.21120359 -0.70214802 0.1775292456150055 0.0637851282954216 0.9820463061332703 255.0 4.0 1.0 1.0
-0.72428989 -0.21579202 -0.68501091 0.13888700306415558 0.050020426511764526 0.9890441298484802 247.0 5.0 1.0 1.0
-0.72481811 -0.22424456 -0.68770105 0.17718367278575897 0.0891176164150238 0.9801346659660339 244.0 5.0 1.0 1.0
-0.77419966 -0.23332793 -0.68540895 0.13884678483009338 0.05549577623605728 0.9887577295303345 244.0 6.0 1.0 1.0
-0.78044605 -0.24415842 -0.69317311 0.13661625981330872 0.055513154715299606 0.9890673756599426 250.0 6.0 1.0 1.0
-0.84824258 -0.25807959 -0.70379502 0.11443571001291275 0.023512834683060646 0.9931522607803345 255.0 7.0 1.0 1.0
-0.83652765 -0.26412433 -0.69633704 0.11443571001291275 0.023512834683060646 0.9931522607803345 255.0 7.0 1.0 1.0
-0.88662851 -0.27197519 -0.69013792 0.12469077110290527 -0.021204069256782532 0.9919690489768982 255.0 8.0 1.0 1.0
-0.86538231 -0.27541271 -0.67581165 0.12744832038879395 -0.021196581423282623 0.9916187524795532 253.0 8.0 1.0 1.0
-0.9557994 -0.2955811 -0.69823134 0.11313066631555557 0.499610036611557 0.8588313460350037 255.0 9.0 1.0 1.0
-0.95889473 -0.30758113 -0.702815 0.11313066631555557 0.499610036611557 0.8588313460350037 255.0 9.0 1.0 1.0
-1.0259945 -0.31906912 -0.70302737 0.017280904576182365 0.38509106636047363 0.9227166771888733 255.0 10.0 1.0 1.0
-1.025779 -0.33082703 -0.70522255 0.017280904576182365 0.38509106636047363 0.9227166771888733 255.0 10.0 1.0 1.0
-1.0251597 -0.32079318 -0.65864259 0.036383163183927536 0.9972494840621948 0.06457188725471497 255.0 11.0 1.0 1.0
-1.0249841 -0.33256739 -0.66073847 0.031252894550561905 0.9984987378120422 0.044983021914958954 255.0 11.0 1.0 1.0
-1.0259693 -0.32283589 -0.61712539 0.014665983617305756 0.9993744492530823 -0.032179757952690125 255.0 12.0 1.0 1.0
-1.0291258 -0.33571744 -0.62111217 0.03094732202589512 0.9995138645172119 -0.0037741167470812798 255.0 12.0 1.0 1.0
-1.0149615 -0.32075492 -0.57124466 0.01902146264910698 0.9984944462776184 -0.05144771188497543 255.0 13.0 1.0 1.0
-1.0048459 -0.32917553 -0.56746548 0.01466277614235878 0.9991559982299805 -0.03836791589856148 255.0 13.0 1.0 1.0
-1.0124331 -0.3211394 -0.53224778 0.01228928193449974 0.9991756081581116 -0.03869319334626198 255.0 14.0 1.0 1.0
-1.025998 -0.33730942 -0.54121459 0.01357619371265173 0.9991589188575745 -0.038692545145750046 255.0 14.0 1.0 1.0
-1.0188121 -0.32435295 -0.49932 0.015547101385891438 0.9998545050621033 -0.007023386657238007 255.0 15.0 1.0 1.0
-1.0153574 -0.3350068 -0.49932462 0.009874274022877216 0.9999266266822815 -0.007023893296718597 255.0 15.0 1.0 1.0
-1.0201948 -0.56558174 -0.50741154 0.014077111147344112 0.9992590546607971 -0.03582414612174034 255.0 16.0 1.0 1.0
-1.0301598 -0.58529526 -0.51539415 0.01086997427046299 0.9995505213737488 -0.027937550097703934 255.0 16.0 1.0 1.0
-1.022741 -0.56560344 -0.47102439 -9.180360211757943e-05 0.9990541338920593 -0.04348364472389221 255.0 17.0 1.0 1.0
-1.0425811 -0.59091771 -0.48299241 0.014934520237147808 0.9989427328109741 -0.043478790670633316 255.0 17.0 1.0 1.0
-1.0178041 -0.5612604 -0.43224767 -0.005226162727922201 0.998638391494751 -0.051904451102018356 255.0 18.0 1.0 1.0
-1.0020776 -0.56635708 -0.4280664 0.022863246500492096 0.9983910322189331 -0.05189159885048866 255.0 18.0 1.0 1.0
-1.021531 -0.56193036 -0.39839286 0.005166089627891779 0.9999720454216003 -0.005400031339377165 255.0 19.0 1.0 1.0
-1.0221835 -0.5763163 -0.40098336 0.0228920578956604 0.999649167060852 -0.013319946825504303 255.0 19.0 1.0 1.0
-1.0175253 -0.55857962 -0.36259782 0.02287757210433483 0.9995694756507874 -0.018368205055594444 255.0 20.0 1.0 1.0
-1.0082912 -0.56733465 -0.36140758 0.02287757210433483 0.9995694756507874 -0.018368205055594444 255.0 20.0 1.0 1.0
-1.0260072 -0.56207943 -0.33200935 0.005160743836313486 0.9989373087882996 -0.045800670981407166 255.0 21.0 1.0 1.0
-1.0200638 -0.5727948 -0.33201221 0.012211165390908718 0.9988760352134705 -0.04579785838723183 255.0 21.0 1.0 1.0
-1.0202099 -0.55775589 -0.29712617 0.00035016590845771134 0.9999681115150452 -0.00797484815120697 255.0 22.0 1.0 1.0
-1.0075506 -0.56462204 -0.29514751 0.00035016590845771134 0.9999681115150452 -0.00797484815120697 255.0 22.0 1.0 1.0
-1.0030637 -0.54748291 -0.26060703 0.007761618588119745 0.9982877373695374 -0.057976335287094116 255.0 23.0 1.0 1.0
-1.0142924 -0.56747711 -0.2650589 0.007761618588119745 0.9982877373695374 -0.057976335287094116 255.0 23.0 1.0 1.0
-1.0123748 -0.55188483 -0.2317564 0.013650457374751568 0.9838547706604004 -0.17844705283641815 255.0 24.0 1.0 1.0
-1.0099633 -0.5643695 -0.23254792 0.013650457374751568 0.9838547706604004 -0.17844705283641815 255.0 24.0 1.0 1.0
-1.0142356 -0.5519895 -0.20109327 -0.07469809800386429 0.9929876327514648 -0.09162835776805878 255.0 25.0 1.0 1.0
-1.0221655 -0.57025933 -0.20384289 -0.07469809800386429 0.9929876327514648 -0.09162835776805878 255.0 25.0 1.0 1.0
-1.0013698 -0.54431748 -0.16824178 -0.00510425167158246 0.9862952828407288 -0.1649109423160553 255.0 26.0 1.0 1.0
-0.98870158 -0.55092245 -0.16707556 -0.06984058767557144 0.9935092926025391 -0.08978748321533203 255.0 26.0 1.0 1.0
-1.0119922 -0.54964119 -0.13999666 -0.005170206539332867 0.9990396499633789 -0.04350830242037773 255.0 27.0 1.0 1.0
-1.020059 -0.56793404 -0.14193197 -0.005170206539332867 0.9990396499633789 -0.04350830242037773 244.0 27.0 1.0 1.0
-1.0011053 -0.54305881 -0.10884602 0.014265352860093117 0.9958195090293884 0.09022177755832672 255.0 28.0 1.0 1.0
-0.99188411 -0.55157745 -0.10846792 0.014265352860093117 0.9958195090293884 0.09022177755832672 255.0 28.0 1.0 1.0
-0.99981618 -0.54214203 -0.079317153 0.027980821207165718 0.9926835298538208 0.11745841801166534 255.0 29.0 1.0 1.0
-0.99408507 -0.55258191 -0.079320006 0.027980821207165718 0.9926835298538208 0.11745841801166534 255.0 29.0 1.0 1.0
-0.99443161 -0.5387817 -0.049902648 0.028165629133582115 0.9992399215698242 -0.02695358544588089 255.0 30.0 1.0 1.0
-1.0096974 -0.56080556 -0.050965723 0.028165629133582115 0.9992399215698242 -0.02695358544588089 255.0 30.0 1.0 1.0
-1.0057745 -0.54493427 -0.021336624 0.01952335052192211 0.999267041683197 -0.03292679414153099 255.0 31.0 1.0 1.0
-1.0035105 -0.55737764 -0.021414468 0.01952335052192211 0.999267041683197 -0.03292679414153099 255.0 31.0 1.0 1.0
-1.000687 -0.32477444 0.0074769715 0.03519345074892044 0.9980527758598328 -0.05149923637509346 255.0 32.0 1.0 1.0
-0.99723262 -0.33523479 0.0074724923 0.03519345074892044 0.9980527758598328 -0.05149923637509346 255.0 32.0 1.0 1.0
-1.0155065 -0.32920259 0.034779232 0.02557850442826748 0.9991524815559387 -0.032248545438051224 255.0 33.0 1.0 1.0
-0.97410452 -0.32709509 0.033476099 0.02557850442826748 0.9991524815559387 -0.032248545438051224 255.0 33.0 1.0 1.0
-0.97640038 -0.31635243 0.059648406 0.025566555559635162 0.9986858367919922 -0.04441705718636513 255.0 34.0 1.0 1.0
-0.99953717 -0.33544967 0.061265796 0.025566555559635162 0.9986858367919922 -0.04441705718636513 255.0 34.0 1.0 1.0
-1.0011786 -0.32438946 0.088147916 0.0339798629283905 0.9984311461448669 -0.044503919780254364 255.0 35.0 1.0 1.0
-1.0052871 -0.33739021 0.088810399 0.014239206910133362 0.9966386556625366 -0.08067698776721954 255.0 35.0 1.0 1.0
-1.0063859 -0.32569933 0.11589395 0.028070693835616112 0.9993856549263 -0.020987309515476227 255.0 36.0 1.0 1.0
-0.97276074 -0.32611081 0.11240711 0.028070693835616112 0.9993856549263 -0.020987309515476227 255.0 36.0 1.0 1.0
-0.96183562 -0.31092668 0.13718626 0.02798641286790371 0.9963850378990173 -0.08020956069231033 255.0 37.0 1.0 1.0
-0.99235743 -0.33230475 0.14202006 0.02798641286790371 0.9963850378990173 -0.08020956069231033 255.0 37.0 1.0 1.0
-0.9996742 -0.32258838 0.17006394 0.014265836216509342 0.9985021352767944 -0.05281990021467209 255.0 38.0 1.0 1.0
-0.9924987 -0.33178592 0.16942051 0.014265836216509342 0.9985021352767944 -0.05281990021467209 255.0 38.0 1.0 1.0
-0.96541029 -0.31098905 0.19112132 0.020326556637883186 0.9994444847106934 -0.02641102485358715 255.0 39.0 1.0 1.0
-0.98074752 -0.32729986 0.19481882 0.020326556637883186 0.9994444847106934 -0.02641102485358715 255.0 39.0 1.0 1.0
-0.96420097 -0.31024009 0.21818176 0.02028661221265793 0.9974804520606995 -0.06797876954078674 255.0 40.0 1.0 1.0
-0.98687083 -0.32897189 0.22407135 0.02028661221265793 0.9974804520606995 -0.06797876954078674 255.0 40.0 1.0 1.0
-0.9623732 -0.30892321 0.24545732 0.026745811104774475 0.9973592758178711 -0.06752019375562668 255.0 41.0 1.0 1.0
-0.96277708 -0.32020777 0.24639663 0.026745811104774475 0.9973592758178711 -0.06752019375562668 255.0 41.0 1.0 1.0
-0.97457486 -0.31210089 0.27685821 0.016866575926542282 0.9989967942237854 -0.04148338735103607 255.0 42.0 1.0 1.0
-1.0079054 -0.33444348 0.28729728 0.016866575926542282 0.9989967942237854 -0.04148338735103607 255.0 42.0 1.0 1.0
-0.96753657 -0.30893001 0.30379704 0.016860300675034523 0.9986252784729004 -0.04963156580924988 255.0 43.0 1.0 1.0
-0.97152895 -0.3214488 0.30608469 0.016860300675034523 0.9986252784729004 -0.04963156580924988 255.0 43.0 1.0 1.0
-0.94894183 -0.30209556 0.32681799 0.02055167406797409 0.998045802116394 -0.05901074409484863 255.0 44.0 1.0 1.0
-0.96738648 -0.31915537 0.33429566 0.02055167406797409 0.998045802116394 -0.05901074409484863 255.0 44.0 1.0 1.0
-0.94772106 -0.3008098 0.35600284 0.02623068168759346 0.9959326386451721 -0.0861983373761177 255.0 45.0 1.0 1.0
-0.96956539 -0.31894949 0.36543521 0.02623068168759346 0.9959326386451721 -0.0861983373761177 255.0 45.0 1.0 1.0
-0.97065568 -0.30698231 0.395385 0.020774802193045616 0.9964072704315186 -0.08210287243127823 255.0 46.0 1.0 1.0
-0.97093529 -0.31828743 0.39682847 0.026227647438645363 0.9958174228668213 -0.08751940727233887 255.0 46.0 1.0 1.0
-0.94978565 -0.2994864 0.41820028 0.020801503211259842 0.9976879954338074 -0.06469998508691788 255.0 47.0 1.0 1.0
-0.94660145 -0.30941248 0.41819596 0.020801503211259842 0.9976879954338074 -0.06469998508691788 255.0 47.0 1.0 1.0
-0.97066927 -0.53353238 0.50215054 0.02810274250805378 0.9970089197158813 -0.07199658453464508 255.0 48.0 1.0 1.0
-0.96503365 -0.54366368 0.50214785 0.023298855870962143 0.997466504573822 -0.06721284240484238 255.0 48.0 1.0 1.0
-0.94179136 -0.51895678 0.52390921 0.038035135716199875 0.9957131147384644 -0.0843130573630333 250.0 49.0 1.0 1.0
-0.94570416 -0.53409016 0.52916217 0.021112892776727676 0.9982478618621826 -0.05527786538004875 250.0 49.0 1.0 1.0
-0.95584565 -0.52823257 0.57054257 0.038035135716199875 0.9957131147384644 -0.0843130573630333 253.0 50.0 1.0 1.0
-0.94718206 -0.536461 0.56868786 0.02819421887397766 0.9955469965934753 -0.08995164185762405 253.0 50.0 1.0 1.0
-0.95579284 -0.52995634 0.61113387 0.030838748440146446 0.9950730800628662 -0.09422579407691956 247.0 51.0 1.0 1.0
-0.95323211 -0.54165548 0.61308342 0.030838748440146446 0.9950730800628662 -0.09422579407691956 250.0 51.0 1.0 1.0
-0.94526792 -0.5258584 0.64646792 0.03374665975570679 0.9971964955329895 -0.06678705662488937 244.0 52.0 1.0 1.0
-0.93076628 -0.53062171 0.64030951 0.03374665975570679 0.9971964955329895 -0.06678705662488937 241.0 52.0 1.0 1.0
-0.94207484 -0.52646303 0.68856317 0.023563966155052185 0.9953113794326782 -0.0938078910112381 238.0 53.0 1.0 1.0
-0.93066323 -0.53294289 0.68425775 0.0573449581861496 0.9942776560783386 -0.09013094007968903 235.0 53.0 1.0 1.0
-0.93698186 -0.52620637 0.73182482 0.02737109363079071 0.9975796341896057 -0.06391987204551697 247.0 54.0 1.0 1.0
-0.93429232 -0.53763187 0.7340737 0.04285532981157303 0.9972155690193176 -0.061028722673654556 244.0 54.0 1.0 1.0
-0.9272604 -0.52331585 0.77368402 0.029554244130849838 0.9984397292137146 -0.04737653210759163 241.0 55.0 1.0 1.0
-0.93574363 -0.541089 0.78543812 0.029554244130849838 0.9984397292137146 -0.04737653210759163 244.0 55.0 1.0 1.0
-0.92644602 -0.52606952 0.82611519 0.02968514896929264 0.9986642003059387 -0.042292457073926926 232.0 56.0 1.0 1.0
-0.9263581 -0.5389145 0.83101493 0.02357109822332859 0.9991323351860046 -0.03433668613433838 241.0 56.0 1.0 1.0
-0.92287761 -0.52768242 0.88015497 0.02212885580956936 0.999062180519104 -0.037215448915958405 238.0 57.0 1.0 1.0
-0.92262614 -0.54042441 0.88525426 0.02212885580956936 0.999062180519104 -0.037215448915958405 235.0 57.0 1.0 1.0
-0.91657043 -0.52770311 0.9357391 0.013759475201368332 0.9988989233970642 -0.04485078901052475 235.0 58.0 1.0 1.0
-0.92648542 -0.54639441 0.95163983 0.009502993896603584 0.9984951615333557 -0.054009802639484406 250.0 58.0 1.0 1.0
-0.92166013 -0.53515232 1.0097681 0.010094668716192245 0.9994719624519348 -0.030884264037013054 247.0 59.0 1.0 1.0
-0.92100531 -0.54773456 1.0152681 0.010092712007462978 0.99927818775177 -0.036622919142246246 241.0 59.0 1.0 1.0
-0.91940081 -0.53944665 1.0837749 0.023865098133683205 0.9985402226448059 -0.048454832285642624 247.0 60.0 1.0 1.0
-0.93294507 -0.56059211 1.1065867 0.014892710372805595 0.9989666938781738 -0.04293900728225708 255.0 60.0 1.0 1.0
-0.926027 -0.54988486 1.1780527 0.024417242035269737 0.9991843700408936 -0.03216102346777916 255.0 61.0 1.0 1.0
-0.91100281 -0.55393422 1.1662414 0.005612061824649572 0.9999185800552368 -0.011461803689599037 253.0 61.0 1.0 1.0
-0.91474569 -0.5503509 1.2609383 0.010162658989429474 0.993885338306427 -0.10994840413331985 255.0 62.0 1.0 1.0
-0.93094909 -0.57344371 1.2914648 0.03765595704317093 0.9946408271789551 -0.09628920257091522 255.0 62.0 1.0 1.0
-0.92169201 -0.56356478 1.3845401 0.018001064658164978 0.9945253133773804 -0.10293304920196533 255.0 63.0 1.0 1.0
-0.91157907 -0.57056439 1.3782307 0.016083525493741035 0.9944593906402588 -0.10388439893722534 255.0 63.0 1.0 1.0
-0.52572 -0.13078925 -0.71363825 0.27387773990631104 0.022065995261073112 0.9615112543106079 255.0 0.0 1.0 1.0
-0.51963711 -0.13507603 -0.70726818 0.22172847390174866 0.022372150793671608 0.9748518466949463 255.0 0.0 1.0 1.0
-0.55984932 -0.1433593 -0.70031548 0.27913567423820496 0.10883559286594391 0.9540640115737915 253.0 1.0 1.0 1.0
-0.55339539 -0.14790487 -0.69414711 0.27913567423820496 0.10883559286594391 0.9540640115737915 244.0 1.0 1.0 1.0
-0.58696824 -0.15371549 -0.68084836 0.19487264752388 0.030146248638629913 0.9803651571273804 235.0 2.0 1.0 1.0
-0.59045684 -0.16125935 -0.68682456 0.19487264752388 0.030146248638629913 0.9803651571273804 244.0 2.0 1.0 1.0
-0.64758843 -0.17299363 -0.69835925 0.21868067979812622 0.05606407672166824 0.9741846323013306 253.0 3.0 1.0 1.0
-0.63773358 -0.17754291 -0.68970376 0.19545115530490875 0.03183098882436752 0.9801967144012451 250.0 3.0 1.0 1.0
-0.68138492 -0.18484738 -0.68541294 0.21858666837215424 0.06324730068445206 0.9737657308578491 247.0 4.0 1.0 1.0
-0.68216997 -0.19275706 -0.68820292 0.21858666837215424 0.06324730068445206 0.9737657308578491 247.0 4.0 1.0 1.0
-0.72866398 -0.20056066 -0.68499845 0.1797412484884262 0.04968734830617905 0.982458233833313 247.0 5.0 1.0 1.0
-0.72367162 -0.20736842 -0.68231529 0.13888700306415558 0.050020426511764526 0.9890441298484802 238.0 5.0 1.0 1.0
-0.78480852 -0.21868405 -0.69056916 0.15481923520565033 0.07175692915916443 0.9853333830833435 253.0 6.0 1.0 1.0
-0.77661115 -0.22519641 -0.68539929 0.15481923520565033 0.07175692915916443 0.9853333830833435 250.0 6.0 1.0 1.0
-0.83538222 -0.23515101 -0.68885696 0.1579493284225464 0.022730205208063126 0.987185537815094 255.0 7.0 1.0 1.0
-0.84189016 -0.24653035 -0.69632268 0.11380056291818619 0.022869620472192764 0.9932403564453125 255.0 7.0 1.0 1.0
-0.90140474 -0.25595817 -0.6972875 0.11382444947957993 -0.0101833650842309 0.9934487342834473 255.0 8.0 1.0 1.0
-0.88328433 -0.26084554 -0.68535006 0.12469077110290527 -0.021204069256782532 0.9919690489768982 255.0 8.0 1.0 1.0
-0.96494806 -0.2763837 -0.70050424 -0.4070056080818176 0.6187612414360046 0.6719232201576233 255.0 9.0 1.0 1.0
-0.95571011 -0.28460646 -0.69592971 0.017280904576182365 0.38509106636047363 0.9227166771888733 255.0 9.0 1.0 1.0
-1.0260344 -0.29564008 -0.69862872 0.017280904576182365 0.38509106636047363 0.9227166771888733 255.0 10.0 1.0 1.0
-1.0389103 -0.3111732 -0.70958549 0.017280904576182365 0.38509106636047363 0.9227166771888733 255.0 10.0 1.0 1.0
-1.0316672 -0.29923493 -0.65862471 0.036383163183927536 0.9972494840621948 0.06457188725471497 255.0 11.0 1.0 1.0
-1.0154147 -0.30609065 -0.65026474 0.036383163183927536 0.9972494840621948 0.06457188725471497 255.0 11.0 1.0 1.0
-1.0325186 -0.30126068 -0.61710751 0.014665983617305756 0.9993744492530823 -0.032179757952690125 255.0 12.0 1.0 1.0
-1.0226641 -0.31004772 -0.61313033 0.014665983617305756 0.9993744492530823 -0.032179757952690125 255.0 12.0 1.0 1.0
-0.99779391 -0.29247367 -0.55798435 0.01902146264910698 0.9984944462776184 -0.05144771188497543 255.0 13.0 1.0 1.0
-1.0182749 -0.31009433 -0.57123184 0.01902146264910698 0.9984944462776184 -0.05144771188497543 255.0 13.0 1.0 1.0
-1.0155176 -0.29883936 -0.53043789 0.0155338104814291 0.9989996552467346 -0.04193306714296341 255.0 14.0 1.0 1.0
-1.0225897 -0.31259552 -0.53581977 0.0155338104814291 0.9989996552467346 -0.04193306714296341 255.0 14.0 1.0 1.0
-1.0045382 -0.29676932 -0.48914495 0.013098351657390594 0.9999037384986877 -0.004574216902256012 255.0 15.0 1.0 1.0
-1.018697 -0.31258962 -0.49761418 0.015547101385891438 0.9998545050621033 -0.007023386657238007 255.0 15.0 1.0 1.0
-1.0285853 -0.5423643 -0.50580025 0.0069481125101447105 0.9997431039810181 -0.021569853648543358 255.0 16.0 1.0 1.0
-1.0228472 -0.55310899 -0.50580329 0.0069481125101447105 0.9997431039810181 -0.021569853648543358 255.0 16.0 1.0 1.0
-1.0343752 -0.54404354 -0.47100896 0.014592145569622517 0.9985855221748352 -0.051127977669239044 255.0 17.0 1.0 1.0
-1.022089 -0.55132604 -0.4680208 -9.180360211757943e-05 0.9990541338920593 -0.04348364472389221 255.0 17.0 1.0 1.0
-1.0193868 -0.53458261 -0.4280484 0.02403673343360424 0.9984084963798523 -0.05101771280169487 255.0 18.0 1.0 1.0
-1.0038258 -0.53990364 -0.42386752 0.02403673343360424 0.9984084963798523 -0.05101771280169487 255.0 18.0 1.0 1.0
-1.026379 -0.53688908 -0.39578986 0.02287757210433483 0.9995694756507874 -0.018368205055594444 255.0 19.0 1.0 1.0
-1.0240346 -0.54939884 -0.39708668 0.024062898010015488 0.999495267868042 -0.02074088715016842 255.0 19.0 1.0 1.0
-1.0188569 -0.53183264 -0.35900334 0.01445604208856821 0.9995148777961731 -0.027586545795202255 255.0 20.0 1.0 1.0
-1.0334268 -0.55328554 -0.36616465 0.02287757210433483 0.9995694756507874 -0.018368205055594444 255.0 20.0 1.0 1.0
-1.0068481 -0.52445716 -0.32216203 -0.0028241737745702267 0.9996153116226196 -0.02758931741118431 255.0 21.0 1.0 1.0
-1.0114821 -0.54041255 -0.32544231 0.01445604208856821 0.9995148777961731 -0.027586545795202255 255.0 21.0 1.0 1.0
-1.011044 -0.5255304 -0.29116648 0.00777433579787612 0.9999234676361084 -0.00962392520159483 255.0 22.0 1.0 1.0
-1.0020648 -0.53426731 -0.29017878 0.00035016590845771134 0.9999681115150452 -0.00797484815120697 255.0 22.0 1.0 1.0
-1.0004717 -0.51915753 -0.2570329 0.007761618588119745 0.9982877373695374 -0.057976335287094116 255.0 23.0 1.0 1.0
-1.0018649 -0.53327155 -0.25881541 0.007761618588119745 0.9982877373695374 -0.057976335287094116 255.0 23.0 1.0 1.0
-0.99586421 -0.51611429 -0.22543241 -0.007103234529495239 0.9935179352760315 -0.11345324665307999 255.0 24.0 1.0 1.0
-1.0077182 -0.53571844 -0.22937836 -0.07469809800386429 0.9929876327514648 -0.09162835776805878 255.0 24.0 1.0 1.0
-1.0010804 -0.51793969 -0.19627155 0.0004931854200549424 0.995255172252655 -0.09729782491922379 255.0 25.0 1.0 1.0
-1.0130061 -0.53763103 -0.1997077 0.0005770817515440285 0.993497908115387 -0.11384926736354828 255.0 25.0 1.0 1.0
-1.0266187 -0.53047818 -0.1705645 -0.00510425167158246 0.9862952828407288 -0.1649109423160553 255.0 26.0 1.0 1.0
-1.0035255 -0.53193551 -0.16764516 -0.00510425167158246 0.9862952828407288 -0.1649109423160553 255.0 26.0 1.0 1.0
-1.0021173 -0.51738542 -0.13708302 0.014275223016738892 0.9965084791183472 -0.08226270228624344 255.0 27.0 1.0 1.0
-1.0247176 -0.54271662 -0.14095049 -0.005170206539332867 0.9990396499633789 -0.04350830242037773 255.0 27.0 1.0 1.0
-1.0122643 -0.52196085 -0.10883083 0.014265352860093117 0.9958195090293884 0.09022177755832672 255.0 28.0 1.0 1.0
-0.99970371 -0.52880925 -0.10807209 0.014265352860093117 0.9958195090293884 0.09022177755832672 255.0 28.0 1.0 1.0
-1.0038618 -0.51741582 -0.078744762 0.027980821207165718 0.9926835298538208 0.11745841801166534 255.0 29.0 1.0 1.0
-1.0089723 -0.53349417 -0.079583652 0.027980821207165718 0.9926835298538208 0.11745841801166534 255.0 29.0 1.0 1.0
-1.0161597 -0.52331316 -0.050417475 0.019533028826117516 0.9997624754905701 -0.009673028253018856 255.0 30.0 1.0 1.0
-1.0000247 -0.52832568 -0.049890593 0.019533028826117516 0.9997624754905701 -0.009673028253018856 255.0 30.0 1.0 1.0
-0.99563617 -0.51275396 -0.020871919 0.008961325511336327 0.9998902678489685 -0.011798937804996967 255.0 31.0 1.0 1.0
-0.99728602 -0.52688724 -0.021024762 0.01952335052192211 0.999267041683197 -0.03292679414153099 255.0 31.0 1.0 1.0
-0.99578059 -0.30027115 0.0074099279 0.03519345074892044 0.9980527758598328 -0.05149923637509346 255.0 32.0 1.0 1.0
-1.0040351 -0.31426474 0.0074896179 0.03519345074892044 0.9980527758598328 -0.05149923637509346 255.0 32.0 1.0 1.0
-0.99538094 -0.2997835 0.033887174 0.02557850442826748 0.9991524815559387 -0.032248545438051224 255.0 33.0 1.0 1.0
-0.9616617 -0.30064896 0.032843176 0.02557850442826748 0.9991524815559387 -0.032248545438051224 255.0 33.0 1.0 1.0
-0.99428254 -0.29927537 0.060360551 0.034747619181871414 0.9974218606948853 -0.06278767436742783 255.0 34.0 1.0 1.0
-1.0101541 -0.31562239 0.061514713 0.034747619181871414 0.9974218606948853 -0.06278767436742783 255.0 34.0 1.0 1.0
-0.98866642 -0.29759729 0.086497337 0.0339798629283905 0.9984311461448669 -0.044503919780254364 255.0 35.0 1.0 1.0
-1.0007168 -0.31268638 0.087827004 0.0339798629283905 0.9984311461448669 -0.044503919780254364 255.0 35.0 1.0 1.0
-1.0091763 -0.30339673 0.11547596 0.028070693835616112 0.9993856549263 -0.020987309515476227 255.0 36.0 1.0 1.0
-0.96419227 -0.30091974 0.11068238 0.028070693835616112 0.9993856549263 -0.020987309515476227 255.0 36.0 1.0 1.0
-0.97192997 -0.29184505 0.13774051 0.04443937912583351 0.9967723488807678 -0.06685811281204224 255.0 37.0 1.0 1.0
-1.0142336 -0.31615573 0.14418763 0.014265836216509342 0.9985021352767944 -0.05281990021467209 255.0 37.0 1.0 1.0
-0.99486011 -0.29817232 0.16816415 0.023826370015740395 0.9997045397758484 -0.004823571536689997 255.0 38.0 1.0 1.0
-0.9690631 -0.30153504 0.16432555 0.014265836216509342 0.9985021352767944 -0.05281990021467209 255.0 38.0 1.0 1.0
-1.0169007 -0.30420834 0.2000234 0.020326556637883186 0.9994444847106934 -0.02641102485358715 255.0 39.0 1.0 1.0
-0.96110493 -0.29851967 0.18965264 0.020326556637883186 0.9994444847106934 -0.02641102485358715 255.0 39.0 1.0 1.0
-0.95174849 -0.28437486 0.21398805 0.030087094753980637 0.9965341091156006 -0.07755457609891891 255.0 40.0 1.0 1.0
-0.97860044 -0.30358952 0.2207201 0.010299895890057087 0.998792290687561 -0.04804137721657753 255.0 40.0 1.0 1.0
-0.99470365 -0.2964614 0.25208011 0.026745811104774475 0.9973592758178711 -0.06752019375562668 255.0 41.0 1.0 1.0
-0.97298062 -0.30111477 0.24735691 0.026745811104774475 0.9973592758178711 -0.06752019375562668 255.0 41.0 1.0 1.0
-0.98089194 -0.29161349 0.27687508 0.016866575926542282 0.9989967942237854 -0.04148338735103607 255.0 42.0 1.0 1.0
-0.98516661 -0.30414405 0.27895933 0.016866575926542282 0.9989967942237854 -0.04148338735103607 255.0 42.0 1.0 1.0
-0.98113722 -0.29076815 0.30610597 0.016860300675034523 0.9986252784729004 -0.04963156580924988 255.0 43.0 1.0 1.0
-1.0000188 -0.30778566 0.31297782 0.016860300675034523 0.9986252784729004 -0.04963156580924988 255.0 43.0 1.0 1.0
-0.98421395 -0.29075935 0.33681095 0.02055167406797409 0.998045802116394 -0.05901074409484863 255.0 44.0 1.0 1.0
-0.96658438 -0.2965889 0.33181816 0.02055167406797409 0.998045802116394 -0.05901074409484863 255.0 44.0 1.0 1.0
-0.97186905 -0.28620583 0.36276007 0.0431976355612278 0.9953454732894897 -0.08614751696586609 255.0 45.0 1.0 1.0
-0.98682934 -0.3018702 0.36949635 0.02623068168759346 0.9959326386451721 -0.0861983373761177 255.0 45.0 1.0 1.0
-0.96970785 -0.28448075 0.39250579 0.01776176504790783 0.9964652061462402 -0.08210764080286026 255.0 46.0 1.0 1.0
-0.96667969 -0.29461598 0.39250129 0.020774802193045616 0.9964072704315186 -0.08210287243127823 255.0 46.0 1.0 1.0
-0.95938063 -0.28055784 0.41976532 0.036358654499053955 0.9961165189743042 -0.08018799126148224 255.0 47.0 1.0 1.0
-0.97051001 -0.29487225 0.42595506 0.036358654499053955 0.9961165189743042 -0.08018799126148224 255.0 47.0 1.0 1.0
-0.9590205 -0.50126934 0.49060449 0.013620946556329727 0.9960623383522034 -0.08760325610637665 255.0 48.0 1.0 1.0
-0.96335649 -0.51644325 0.49555618 0.013622392900288105 0.9961680769920349 -0.08639252185821533 255.0 48.0 1.0 1.0
-0.95244509 -0.49911338 0.5239234 0.02810274250805378 0.9970089197158813 -0.07199658453464508 255.0 49.0 1.0 1.0
-0.9440037 -0.50735307 0.52216864 0.022692490369081497 0.9952731132507324 -0.09442730247974396 250.0 49.0 1.0 1.0
-0.9572745 -0.50314534 0.56500059 0.04691735655069351 0.992958128452301 -0.10877884179353714 253.0 50.0 1.0 1.0
-0.9519586 -0.51313716 0.56499779 0.038035135716199875 0.9957131147384644 -0.0843130573630333 253.0 50.0 1.0 1.0
-0.94814289 -0.5000475 0.59943485 0.030838748440146446 0.9950730800628662 -0.09422579407691956 244.0 51.0 1.0 1.0
-0.94900179 -0.51326537 0.60333651 0.030838748440146446 0.9950730800628662 -0.09422579407691956 250.0 51.0 1.0 1.0
-0.93481845 -0.4947015 0.63211811 0.03374665975570679 0.9971964955329895 -0.06678705662488937 244.0 52.0 1.0 1.0
-0.94468206 -0.51264578 0.64237535 0.03374665975570679 0.9971964955329895 -0.06678705662488937 244.0 52.0 1.0 1.0
-0.92310637 -0.49078631 0.6670624 0.03317772597074509 0.9940930604934692 -0.1033356636762619 232.0 53.0 1.0 1.0
-0.94457 -0.51494503 0.68642306 0.03317772597074509 0.9940930604934692 -0.1033356636762619 250.0 53.0 1.0 1.0
-0.93320382 -0.49867436 0.72058129 0.02737109363079071 0.9975796341896057 -0.06391987204551697 247.0 54.0 1.0 1.0
-0.92793709 -0.5084132 0.72057861 0.02737109363079071 0.9975796341896057 -0.06391987204551697 235.0 54.0 1.0 1.0
-0.9265998 -0.497655 0.76429242 0.029553722590208054 0.9984220862388611 -0.047749102115631104 238.0 55.0 1.0 1.0
-0.94118726 -0.51824921 0.78074926 0.029554244130849838 0.9984397292137146 -0.04737653210759163 253.0 55.0 1.0 1.0
-0.92612165 -0.50053859 0.81632447 0.02968514896929264 0.9986642003059387 -0.042292457073926926 229.0 56.0 1.0 1.0
-0.92913163 -0.51479781 0.82367522 0.02968514896929264 0.9986642003059387 -0.042292457073926926 235.0 56.0 1.0 1.0
-0.92288595 -0.5023458 0.86996496 0.02357109822332859 0.9991323351860046 -0.03433668613433838 241.0 57.0 1.0 1.0
-0.92834502 -0.5179795 0.88016599 0.02212885580956936 0.999062180519104 -0.037215448915958405 244.0 57.0 1.0 1.0
-0.92477721 -0.5069505 0.93310207 0.013759475201368332 0.9988989233970642 -0.04485078901052475 232.0 58.0 1.0 1.0
-0.9220373 -0.51806688 0.93575007 0.013759475201368332 0.9988989233970642 -0.04485078901052475 241.0 58.0 1.0 1.0
-0.93264729 -0.51573247 1.0097816 0.020233217626810074 0.9991372227668762 -0.03626791387796402 253.0 59.0 1.0 1.0
-0.91962504 -0.52116817 1.0015256 0.021647503599524498 0.9991330504417419 -0.03556057810783386 247.0 59.0 1.0 1.0
-0.91088939 -0.50912732 1.0609739 0.023865098133683205 0.9985402226448059 -0.048454832285642624 244.0 60.0 1.0 1.0
-0.92255461 -0.52838671 1.0809342 0.023865098133683205 0.9985402226448059 -0.048454832285642624 255.0 60.0 1.0 1.0
-0.92322445 -0.52239794 1.1603526 0.024417242035269737 0.9991843700408936 -0.03216102346777916 255.0 61.0 1.0 1.0
-0.93872768 -0.54420877 1.1869206 0.024417242035269737 0.9991843700408936 -0.03216102346777916 255.0 61.0 1.0 1.0
-0.91707909 -0.52593273 1.24874 0.006782673764973879 0.9973212480545044 -0.07283057272434235 255.0 62.0 1.0 1.0
-0.91375995 -0.5368064 1.2517905 0.010162658989429474 0.993885338306427 -0.10994840413331985 255.0 62.0 1.0 1.0
-0.91413474 -0.53298873 1.3561705 0.03861358016729355 0.9992210865020752 -0.008137608878314495 255.0 63.0 1.0 1.0
-0.91273952 -0.54504418 1.3624755 0.01664104126393795 0.9942676424980164 -0.10561710596084595 255.0 63.0 1.0 1.0
-0.51530701 -0.12247466 -0.69770038 0.27387773990631104 0.022065995261073112 0.9615112543106079 255.0 0.0 1.0 1.0
-0.51892316 -0.11760136 -0.70088398 0.27387773990631104 0.022065995261073112 0.9615112543106079 255.0 0.0 1.0 1.0
-0.54402184 -0.13324399 -0.6787101 0.27913567423820496 0.10883559286594391 0.9540640115737915 244.0 1.0 1.0 1.0
-0.56522083 -0.13216871 -0.70339119 0.27913567423820496 0.10883559286594391 0.9540640115737915 255.0 1.0 1.0 1.0
-0.60404211 -0.15143092 -0.69876081 0.19487264752388 0.030146248638629913 0.9803651571273804 253.0 2.0 1.0 1.0
-0.59007156 -0.14137566 -0.68083823 0.19487264752388 0.030146248638629913 0.9803651571273804 241.0 2.0 1.0 1.0
-0.63595903 -0.16276158 -0.68392044 0.2376367747783661 0.055808838456869125 0.9697495698928833 241.0 3.0 1.0 1.0
-0.64301229 -0.1574046 -0.68968952 0.2376367747783661 0.055808838456869125 0.9697495698928833 244.0 3.0 1.0 1.0
-0.68607074 -0.17841342 -0.68819112 0.17991578578948975 0.02303754910826683 0.9834122061729431 247.0 4.0 1.0 1.0
-0.6823352 -0.16982959 -0.68261451 0.17991578578948975 0.02303754910826683 0.9834122061729431 247.0 4.0 1.0 1.0
-0.72500378 -0.19139631 -0.67961609 0.1797412484884262 0.04968734830617905 0.982458233833313 235.0 5.0 1.0 1.0
-0.73846436 -0.18669297 -0.690359 0.13723744451999664 0.006116493139415979 0.9905191659927368 250.0 5.0 1.0 1.0
-0.79885638 -0.21359293 -0.70090628 0.15481923520565033 0.07175692915916443 0.9853333830833435 255.0 6.0 1.0 1.0
-0.77149582 -0.19764359 -0.675035 0.13688436150550842 0.07194899767637253 0.9879707098007202 241.0 6.0 1.0 1.0
-0.83478528 -0.22556074 -0.68635935 0.1579493284225464 0.022730205208063126 0.987185537815094 255.0 7.0 1.0 1.0
-0.83103937 -0.21523228 -0.68138087 0.1579493284225464 0.022730205208063126 0.987185537815094 253.0 7.0 1.0 1.0
-0.89166331 -0.24311689 -0.68772298 0.11382444947957993 -0.0101833650842309 0.9934487342834473 255.0 8.0 1.0 1.0
-0.89416379 -0.23376153 -0.68771863 0.14058293402194977 -0.01014818623661995 0.9900168776512146 255.0 8.0 1.0 1.0
-0.96147561 -0.26451063 -0.69591302 0.09776535630226135 0.20888742804527283 0.9730405807495117 255.0 9.0 1.0 1.0
-0.97371083 -0.25693297 -0.70277679 0.09776535630226135 0.20888742804527283 0.9730405807495117 255.0 9.0 1.0 1.0
-1.0290855 -0.2848649 -0.69861567 0.017280904576182365 0.38509106636047363 0.9227166771888733 255.0 10.0 1.0 1.0
-1.0223107 -0.27149233 -0.69203967 0.017280904576182365 0.38509106636047363 0.9227166771888733 255.0 10.0 1.0 1.0
-1.0281858 -0.28656977 -0.65442926 0.036383163183927536 0.9972494840621948 0.06457188725471497 255.0 11.0 1.0 1.0
-1.0377219 -0.27754453 -0.65860653 0.036383163183927536 0.9972494840621948 0.06457188725471497 255.0 11.0 1.0 1.0
-1.0289462 -0.2885446 -0.61311245 0.014665983617305756 0.9993744492530823 -0.032179757952690125 255.0 12.0 1.0 1.0
-1.008463 -0.27143994 -0.59917086 0.009061465971171856 0.9998434782028198 -0.01519679743796587 255.0 12.0 1.0 1.0
-1.0177734 -0.28677258 -0.56743056 0.01902146264910698 0.9984944462776184 -0.05144771188497543 255.0 13.0 1.0 1.0
-0.99690777 -0.26965573 -0.5541833 0.01902146264910698 0.9984944462776184 -0.05144771188497543 255.0 13.0 1.0 1.0
-1.0117185 -0.28622845 -0.52684033 0.0155338104814291 0.9989996552467346 -0.04193306714296341 255.0 14.0 1.0 1.0
-1.0250158 -0.27842581 -0.53221232 0.01814405620098114 0.9989557862281799 -0.04193123057484627 255.0 14.0 1.0 1.0
-1.0145719 -0.2881999 -0.49251789 0.01906319335103035 0.9997985363006592 -0.0062736161053180695 255.0 15.0 1.0 1.0
-1.0070469 -0.27469677 -0.48743448 0.01906319335103035 0.9997985363006592 -0.0062736161053180695 255.0 15.0 1.0 1.0
-1.0276955 -0.52819645 -0.50259602 0.014669673517346382 0.9996597766876221 -0.02156805619597435 255.0 16.0 1.0 1.0
-1.0233332 -0.51247633 -0.49780515 0.015219030901789665 0.9996395707130432 -0.02211727201938629 255.0 16.0 1.0 1.0
-1.020218 -0.52301461 -0.46202305 0.015202846378087997 0.9985764622688293 -0.051127512007951736 255.0 17.0 1.0 1.0
-1.0156839 -0.50732678 -0.45753318 -0.0064477697014808655 0.9995436668395996 -0.029511692002415657 255.0 17.0 1.0 1.0
-1.0249395 -0.52386469 -0.42803597 -0.015202922746539116 0.9985814690589905 -0.05102654919028282 255.0 18.0 1.0 1.0
-1.0270149 -0.51142925 -0.42663813 -0.0064448099583387375 0.9990847110748291 -0.04228649660944939 255.0 18.0 1.0 1.0
-1.0150942 -0.51750344 -0.38930875 -0.009598757140338421 0.9997851848602295 -0.01837216690182686 255.0 19.0 1.0 1.0
-1.0272392 -0.51020962 -0.39189291 -0.015218373388051987 0.9995964169502258 -0.023990128189325333 255.0 19.0 1.0 1.0
-1.0107677 -0.51419657 -0.3542189 -0.009594710543751717 0.9993636608123779 -0.03435362130403519 255.0 20.0 1.0 1.0
-1.009256 -0.50019181 -0.35182968 -0.009594710543751717 0.9993636608123779 -0.03435362130403519 255.0 20.0 1.0 1.0
-1.0020002 -0.50864643 -0.31887263 -0.0028241737745702267 0.9996153116226196 -0.02758931741118431 255.0 21.0 1.0 1.0
-1.010722 -0.49982977 -0.31996176 -0.0028241737745702267 0.9996153116226196 -0.02758931741118431 255.0 21.0 1.0 1.0
-1.0026714 -0.50789654 -0.28719148 0.00777433579787612 0.9999234676361084 -0.00962392520159483 255.0 22.0 1.0 1.0
-1.0148864 -0.50079685 -0.28916955 0.00777433579787612 0.9999234676361084 -0.00962392520159483 255.0 22.0 1.0 1.0
-1.0128218 -0.51215827 -0.25880012 0.007761618588119745 0.9982877373695374 -0.057976335287094116 255.0 23.0 1.0 1.0
-1.0111328 -0.49807701 -0.25701746 0.002755645662546158 0.9990718960762024 -0.04298567399382591 255.0 23.0 1.0 1.0
-1.0012218 -0.50564444 -0.22542028 -0.007103234529495239 0.9935179352760315 -0.11345324665307999 255.0 24.0 1.0 1.0
-1.0099809 -0.49686205 -0.22620556 0.002738726558163762 0.9929377436637878 -0.11860476434230804 255.0 24.0 1.0 1.0
-0.9958998 -0.50209391 -0.19419962 0.037101443856954575 0.992655336856842 -0.11514762789011002 255.0 25.0 1.0 1.0
-1.0011029 -0.4916369 -0.19419637 0.037101443856954575 0.992655336856842 -0.11514762789011002 255.0 25.0 1.0 1.0
-1.0073831 -0.50723004 -0.16646098 -0.00510425167158246 0.9862952828407288 -0.1649109423160553 255.0 26.0 1.0 1.0
-0.99132186 -0.48619941 -0.16295119 0.037101443856954575 0.992655336856842 -0.11514762789011002 255.0 26.0 1.0 1.0
-1.014581 -0.51041859 -0.1380368 0.014275223016738892 0.9965084791183472 -0.08226270228624344 255.0 27.0 1.0 1.0
-1.0056069 -0.49277785 -0.13610154 0.016815969720482826 0.9964691400527954 -0.08225945383310318 241.0 27.0 1.0 1.0
-0.98921561 -0.49701989 -0.10577178 0.014265352860093117 0.9958195090293884 0.09022177755832672 255.0 28.0 1.0 1.0
-0.98005909 -0.47963315 -0.10424525 0.018719330430030823 0.995746374130249 0.09021515399217606 247.0 28.0 1.0 1.0
-1.0127964 -0.50865299 -0.079011083 0.027980821207165718 0.9926835298538208 0.11745841801166534 255.0 29.0 1.0 1.0
-0.99655956 -0.48750007 -0.07733646 0.018719330430030823 0.995746374130249 0.09021515399217606 255.0 29.0 1.0 1.0
-1.0144455 -0.50904655 -0.050051883 0.019533028826117516 0.9997624754905701 -0.009673028253018856 255.0 30.0 1.0 1.0
-1.0161294 -0.49664104 -0.049871981 -0.018871046602725983 0.9997751712799072 -0.009673151187598705 255.0 30.0 1.0 1.0
-1.0009557 -0.50228721 -0.020859782 0.008961325511336327 0.9998902678489685 -0.011798937804996967 255.0 31.0 1.0 1.0
