ply
format ascii 1.0
element vertex 435
property float x
property float y
property float z
property float nx
property float ny
property float nz
property float intensity
property float ring
property float return
property float label
end_header
3.5061631 2.1096191 -1.4029555 0.10720184445381165 0.02988673560321331 0.9937880039215088 196.0 19.0 1.0 1.0
3.4645593 2.1343398 -1.3951539 0.14277322590351105 0.03676920756697655 0.9890722036361694 199.0 19.0 1.0 1.0
3.8266461 2.2977402 -1.3997203 0.12762854993343353 0.03298395499587059 0.9912734031677246 205.0 20.0 1.0 1.0
3.7861273 2.3277164 -1.3937227 0.09785076975822449 0.0389070026576519 0.9944402575492859 190.0 20.0 1.0 1.0
3.9875989 2.3895824 -1.3250284 0.19745875895023346 -0.9675813317298889 0.15746870636940002 255.0 21.0 1.0 1.0
3.9754825 2.439265 -1.3294268 0.05869806930422783 -0.9827254414558411 0.17551429569721222 255.0 21.0 1.0 1.0
3.9950368 2.3893082 -1.1952376 0.14799337089061737 -0.98563551902771 0.08136668801307678 255.0 22.0 1.0 1.0
3.9830256 2.4391115 -1.1992296 -0.0544423907995224 -0.9966076612472534 0.061719201505184174 255.0 22.0 1.0 1.0
4.0019836 2.3896766 -1.0686469 0.10175858438014984 -0.9947619438171387 0.009694322012364864 255.0 23.0 1.0 1.0
3.9967129 2.4436564 -1.0740285 -0.12204230576753616 -0.9888419508934021 0.08542349934577942 255.0 23.0 1.0 1.0
4.0021248 2.3869278 -0.94224066 0.042823854833841324 -0.9988383054733276 0.022093575447797775 255.0 24.0 1.0 1.0
4.0204268 2.4552581 -0.95258433 -0.13410471379756927 -0.990273654460907 0.03706762194633484 255.0 24.0 1.0 1.0
4.0167308 2.3918414 -0.81976473 0.0035488151479512453 -0.9989795088768005 0.04502708092331886 255.0 25.0 1.0 1.0
3.9982097 2.4378748 -0.82115388 -0.15328800678253174 -0.9874611496925354 0.037727490067481995 255.0 25.0 1.0 1.0
4.0247216 2.3937519 -0.69687974 -0.056407682597637177 -0.9961715340614319 0.06678669154644012 255.0 26.0 1.0 1.0
4.043386 2.4625022 -0.70457107 -0.19915010035037994 -0.9787278175354004 0.049306247383356094 255.0 26.0 1.0 1.0
4.0362144 2.398684 -0.57642889 -0.16513434052467346 -0.9833505749702454 0.07584428042173386 255.0 27.0 1.0 1.0
4.0346398 2.4552546 -0.57986158 -0.2344174087047577 -0.9685601592063904 0.08330605924129486 255.0 27.0 1.0 1.0
4.0489321 2.403378 -0.45569754 -0.22292286157608032 -0.9683405756950378 0.11234761029481888 255.0 28.0 1.0 1.0
4.0337729 2.4518409 -0.45686343 -0.2891217768192291 -0.953014612197876 0.09039805829524994 255.0 28.0 1.0 1.0
4.05127 2.4038177 -0.33425683 -0.2242525815963745 -0.9700227379798889 0.09363023191690445 255.0 29.0 1.0 1.0
4.0702357 2.4730191 -0.33797285 -0.4544338285923004 -0.8764885663986206 0.15892651677131653 255.0 29.0 1.0 1.0
4.0543318 2.4046855 -0.21376245 -0.2528539001941681 -0.963343620300293 0.08963222801685333 255.0 30.0 1.0 1.0
4.0874577 2.481528 -0.21688789 -0.48888421058654785 -0.8625988960266113 0.1300591230392456 255.0 30.0 1.0 1.0
4.0753798 2.4162078 -0.09423399 -0.31705063581466675 -0.938896119594574 0.1339890956878662 255.0 31.0 1.0 1.0
4.0977511 2.4877775 -0.095384106 -0.6014624238014221 -0.7871608138084412 0.136457622051239 255.0 31.0 1.0 1.0
5.3405633 1.9643794 0.032690365 0.40024226903915405 -0.9156333804130554 -0.0377049446105957 31.0 32.0 1.0 5.0
5.2860713 2.0074115 0.032469962 0.4804084897041321 -0.8769752383232117 -0.01104846503585577 31.0 32.0 1.0 5.0
5.3425293 1.9630712 0.1776285 0.410395085811615 -0.9111661911010742 -0.03677026182413101 31.0 33.0 1.0 5.0
5.288064 2.0061376 0.1764915 0.5014311671257019 -0.8632715940475464 -0.05769774317741394 31.0 33.0 1.0 5.0
5.3369288 1.9600449 0.32253093 0.32365092635154724 -0.9461359977722168 -0.008758844807744026 30.0 34.0 1.0 5.0
5.3273497 2.0200438 0.32317308 0.5345751047134399 -0.8445322513580322 -0.03153984248638153 30.0 34.0 1.0 5.0
5.3724203 1.9731506 0.47134101 0.41354575753211975 -0.9080323576927185 -0.06676299124956131 30.0 35.0 1.0 5.0
5.3552279 2.0306854 0.47163546 0.5442138910293579 -0.8375571966171265 -0.04826004058122635 25.0 35.0 1.0 5.0
5.348875 1.9624819 0.61616522 0.33907318115234375 -0.9407573342323303 0.0022173712495714426 30.0 36.0 1.0 5.0
5.3429484 2.0239859 0.61784643 0.5590601563453674 -0.8285108208656311 -0.031960997730493546 31.0 36.0 1.0 5.0
5.3515353 1.9614273 0.76531094 0.3986949622631073 -0.9156106114387512 -0.05195772275328636 31.0 37.0 1.0 5.0
5.3418694 2.0215306 0.76687068 0.6143463253974915 -0.7878383994102478 -0.04346650466322899 30.0 37.0 1.0 5.0
5.3732352 1.9662726 0.91796905 0.49865031242370605 -0.865025520324707 0.055487267673015594 30.0 38.0 1.0 5.0
5.3191361 2.0098407 0.91224921 0.9319903254508972 0.345046728849411 -0.1110711321234703 30.0 38.0 1.0 1.0
5.0991406 1.8631468 1.0150111 0.4614068865776062 -0.8854400515556335 0.055674634873867035 166.0 39.0 1.0 2.0
4.722476 1.7818958 0.94383788 0.9861222505569458 0.11528035253286362 -0.11947119235992432 42.0 39.0 1.0 1.0
5.3343468 1.9469661 1.2145919 0.5408307909965515 -0.836163341999054 -0.09128473699092865 31.0 40.0 1.0 5.0
4.5632052 1.7201318 1.043367 0.9856361150741577 -0.015350996516644955 -0.1681838184595108 166.0 40.0 1.0 1.0
5.3516765 1.9491489 1.3743498 0.32099348306655884 -0.9464535117149353 -0.03447868302464485 30.0 41.0 1.0 1.0
4.5629129 1.7164642 1.1766539 0.983894407749176 -0.12709486484527588 -0.12569324672222137 247.0 41.0 1.0 1.0
4.9763603 1.8087701 1.4242955 0.9457724690437317 0.24124322831630707 -0.21752284467220306 47.0 42.0 1.0 1.0
4.5520663 1.7088442 1.3080621 0.9912114143371582 -0.0882195383310318 -0.098576121032238 255.0 42.0 1.0 1.0
4.5911379 1.6644813 1.4531264 0.9917762279510498 -0.004291714634746313 -0.1279120147228241 16.0 43.0 1.0 1.0
4.4909039 1.6815284 1.426896 0.9710361957550049 -0.21580880880355835 -0.10254314541816711 238.0 43.0 1.0 1.0
4.6085143 1.6663158 1.6003609 0.9882078766822815 -0.07241097092628479 -0.13491424918174744 229.0 44.0 1.0 1.0
4.5089145 1.6838645 1.5718063 0.9791200757026672 -0.19339974224567413 -0.06261461228132248 255.0 44.0 1.0 1.0
4.4121313 1.5911433 1.6716343 0.2286132574081421 -0.10668464004993439 -0.9676539897918701 94.0 45.0 1.0 1.0
4.437665 1.6529685 1.6877047 0.703921377658844 -0.22646862268447876 -0.6732063293457031 229.0 45.0 1.0 1.0
4.1420965 1.4890881 1.7021973 -0.08800327032804489 -0.6447936296463013 -0.7592738270759583 226.0 46.0 1.0 1.0
4.1578183 1.5439998 1.7151438 -0.08247001469135284 -0.6192910075187683 -0.7808184027671814 244.0 46.0 1.0 1.0
3.896909 1.397323 1.7314403 -0.135569229722023 -0.046589866280555725 -0.9896718859672546 160.0 47.0 1.0 1.0
3.7921147 1.4047096 1.6913247 -0.15995731949806213 -0.10486942529678345 -0.9815375208854675 34.0 47.0 1.0 1.0
3.3993165 2.0431321 1.7910388 -0.1828269064426422 -0.03421342745423317 -0.9825496673583984 211.0 48.0 1.0 1.0
3.3653674 2.0709195 1.7844573 0.2448708862066269 -0.03254349157214165 -0.9690093994140625 163.0 48.0 1.0 1.0
3.1591251 1.9034019 1.7902825 -0.19151096045970917 -0.04456134885549545 -0.9804782867431641 226.0 49.0 1.0 1.0
3.1605244 1.9495369 1.8025002 -0.14092659950256348 -0.05586985871195793 -0.9884422421455383 226.0 49.0 1.0 1.0
2.9607108 1.7889003 1.8007034 -0.11883058398962021 -0.05835215002298355 -0.9911983609199524 244.0 50.0 1.0 1.0
2.9599848 1.8309394 1.8117778 -0.13777336478233337 -0.10408590734004974 -0.9849794507026672 247.0 50.0 1.0 1.0
2.7545435 1.6703629 1.7951528 -0.11461546272039413 -0.11636193841695786 -0.9865714311599731 244.0 51.0 1.0 1.0
2.7431934 1.7022626 1.7990443 -0.13760694861412048 -0.12076880037784576 -0.983096718788147 238.0 51.0 1.0 1.0
2.58357 1.5717288 1.8012128 -0.13071997463703156 -0.026606017723679543 -0.9910622835159302 250.0 52.0 1.0 1.0
2.5818987 1.6072654 1.8114419 -0.10614212602376938 -0.07197540253400803 -0.9917425513267517 253.0 52.0 1.0 1.0
2.4224548 1.4796151 1.8050816 -0.07974281907081604 0.00979104358702898 -0.9967674016952515 255.0 53.0 1.0 1.0
2.4040213 1.5030535 1.802936 -0.13181261718273163 -0.04285508021712303 -0.9903478622436523 253.0 53.0 1.0 1.0
2.2621951 1.3883488 1.8016112 -0.05317018926143646 0.08149044960737228 -0.9952548146247864 255.0 54.0 1.0 1.0
2.2588053 1.418939 1.8105937 -0.139557346701622 0.1837049275636673 -0.973024308681488 255.0 54.0 1.0 1.0
2.1259658 1.310973 1.8089832 0.036908600479364395 -0.06831468641757965 -0.9969808459281921 255.0 55.0 1.0 1.0
2.1039548 1.3279212 1.8019465 0.4882469177246094 -0.08102445304393768 -0.8689360618591309 253.0 55.0 1.0 1.0
1.9794425 1.2278869 1.800311 -0.08488640934228897 -0.025944441556930542 -0.9960528016090393 253.0 56.0 1.0 1.0
1.9638593 1.2467936 1.7978656 -0.14397694170475006 -0.03394860774278641 -0.988998532295227 247.0 56.0 1.0 1.0
1.8605783 1.1618936 1.8101321 -0.11620209366083145 -0.09863599389791489 -0.9883157014846802 253.0 57.0 1.0 1.0
1.8431641 1.1779342 1.8050416 -0.11636270582675934 -0.07004792988300323 -0.9907335638999939 247.0 57.0 1.0 1.0
1.7297083 1.0874134 1.8016342 -0.10085546225309372 -0.06683484464883804 -0.9926536083221436 250.0 58.0 1.0 1.0
1.7334303 1.1151363 1.8175063 -0.09281103312969208 -0.06688742339611053 -0.9934345483779907 255.0 58.0 1.0 1.0
1.611454 1.0214169 1.8015052 -0.1575101763010025 -0.05199592933058739 -0.9861475229263306 247.0 59.0 1.0 1.0
1.6007261 1.0381763 1.8015059 -0.1803281009197235 -0.075395368039608 -0.9807126522064209 247.0 59.0 1.0 1.0
1.5239969 0.97575384 1.8333756 0.22020484507083893 -0.03621458634734154 -0.9747812151908875 255.0 60.0 1.0 1.0
1.4996423 0.98237252 1.8162953 0.22020484507083893 -0.03621458634734154 -0.9747812151908875 253.0 60.0 1.0 1.0
1.425436 0.92326552 1.8509494 0.1624654084444046 -0.03734288737177849 -0.9860074520111084 255.0 61.0 1.0 1.0
1.415747 0.93808109 1.8509506 0.1624654084444046 -0.03734288737177849 -0.9860074520111084 255.0 61.0 1.0 1.0
1.3038906 0.85532659 1.8349057 -0.3749697804450989 -0.049295660108327866 -0.925725519657135 253.0 62.0 1.0 1.0
1.2841595 0.86166835 1.8196653 -0.35548219084739685 -0.02679179422557354 -0.9342990517616272 250.0 62.0 1.0 1.0
1.1906604 0.79336441 1.8263016 -0.07427888363599777 -0.4427059292793274 -0.8935849070549011 250.0 63.0 1.0 1.0
1.1925408 0.81266278 1.8420497 -0.10614091157913208 -0.46789056062698364 -0.8773896098136902 255.0 63.0 1.0 1.0
1.1081849 0.33569044 -1.525447 0.06698164343833923 0.07511474937200546 0.9949227571487427 241.0 0.0 1.0 1.0
1.1162673 0.32538867 -1.5318195 0.06698164343833923 0.07511474937200546 0.9949227571487427 223.0 0.0 1.0 1.0
1.1545324 0.35832775 -1.4649124 0.11984340101480484 0.05842260271310806 0.9910723567008972 23.0 1.0 1.0 1.0
1.3054146 0.39770219 -1.5316854 0.13244208693504333 0.009018131531774998 0.9911497235298157 121.0 2.0 1.0 1.0
1.402323 0.45080146 -1.5352091 0.11478707194328308 0.005266719963401556 0.9933761954307556 247.0 3.0 1.0 1.0
1.3911097 0.43118531 -1.5178524 0.07816005498170853 0.005285545252263546 0.9969268441200256 247.0 3.0 1.0 1.0
1.4894078 0.48533776 -1.5214233 0.038864217698574066 0.04001270979642868 0.9984431266784668 255.0 4.0 1.0 1.0
1.5026039 0.47225976 -1.5297877 0.11621363461017609 0.0732240304350853 0.9905213713645935 255.0 4.0 1.0 1.0
1.5870479 0.52321416 -1.5153806 0.1926977038383484 0.11844804883003235 0.9740830063819885 255.0 5.0 1.0 1.0
1.5896121 0.5056535 -1.5126774 0.12948620319366455 0.11969416588544846 0.9843305945396423 255.0 5.0 1.0 1.0
1.6930783 0.5639919 -1.5135688 0.020732088014483452 0.06097393482923508 0.9979239702224731 255.0 6.0 1.0 1.0
1.7191938 0.55271405 -1.5317017 0.029016921296715736 0.06922871619462967 0.9971787333488464 255.0 6.0 1.0 1.0
1.8052305 0.60652435 -1.5127403 0.08922845125198364 0.018124695867300034 0.9958462119102478 255.0 7.0 1.0 1.0
1.8263597 0.59237641 -1.5251912 0.12308631837368011 0.058943700045347214 0.9906439781188965 255.0 7.0 1.0 1.0
1.9479429 0.6592828 -1.5316947 0.11609850078821182 0.05558301880955696 0.9916812777519226 255.0 8.0 1.0 1.0
1.9394977 0.63386714 -1.5197114 0.11602582782506943 0.06585606932640076 0.9910604953765869 255.0 8.0 1.0 1.0
2.0579786 0.70167083 -1.5189701 0.0961916446685791 0.034990958869457245 0.9947476387023926 255.0 9.0 1.0 1.0
2.0683193 0.68108326 -1.5212514 0.10475724935531616 0.0349605493247509 0.9938831329345703 255.0 9.0 1.0 1.0
2.1971064 0.75287265 -1.5213743 0.13753440976142883 0.07223530113697052 0.9878595471382141 253.0 10.0 1.0 1.0
2.2207367 0.73504174 -1.5323408 0.13502970337867737 0.07066360861063004 0.9883185625076294 255.0 10.0 1.0 1.0
2.3563244 0.81193089 -1.5302159 0.15501034259796143 0.029032111167907715 0.9874861240386963 255.0 11.0 1.0 1.0
2.3549924 0.7839725 -1.5239085 0.14451779425144196 0.018303943797945976 0.989332914352417 253.0 11.0 1.0 1.0
2.4814067 0.85934001 -1.5089738 0.11993904411792755 0.014865908771753311 0.9926699995994568 244.0 12.0 1.0 1.0
2.5231378 0.84425926 -1.5289282 0.11504828184843063 0.012616402469575405 0.9932798147201538 255.0 12.0 1.0 1.0
2.6728711 0.92919666 -1.5212779 0.17677627503871918 0.014638391323387623 0.9841421842575073 250.0 13.0 1.0 1.0
2.6891253 0.90337336 -1.5250561 0.09311719238758087 0.024736415594816208 0.9953478574752808 253.0 13.0 1.0 1.0
2.8461206 0.99268711 -1.513437 0.10171674191951752 0.06282252073287964 0.9928277730941772 241.0 14.0 1.0 1.0
2.8495793 0.96053177 -1.5098209 0.09087665379047394 0.050968870520591736 0.9945569634437561 235.0 14.0 1.0 1.0
3.0441985 1.0652624 -1.5095239 0.15263451635837555 0.019441206008195877 0.9880914688110352 229.0 15.0 1.0 1.0
3.0791969 1.0414112 -1.5213985 0.1573622077703476 0.06542828679084778 0.9853711724281311 238.0 15.0 1.0 1.0
2.8280568 1.6745801 -1.4328676 0.13213494420051575 0.05367106571793556 0.9897775650024414 238.0 16.0 1.0 1.0
2.858125 1.6521865 -1.4392747 0.09255985170602798 0.03746410459280014 0.995002031326294 244.0 16.0 1.0 1.0
3.0347934 1.7925749 -1.4241657 0.14348424971103668 0.11071810871362686 0.9834396839141846 226.0 17.0 1.0 1.0
3.0598147 1.7643803 -1.4271673 0.18609629571437836 0.05261398106813431 0.9811217784881592 220.0 17.0 1.0 1.0
3.2790406 1.9313023 -1.4193958 0.129775732755661 0.03208370506763458 0.9910240769386292 214.0 18.0 1.0 1.0
3.3218179 1.9099035 -1.4292012 0.20870590209960938 0.005304504651576281 0.9779641032218933 223.0 18.0 1.0 1.0
3.5508571 2.0862448 -1.4120162 0.12464761734008789 0.06226072832942009 0.9902456998825073 196.0 19.0 1.0 1.0
3.5823467 2.0545716 -1.4159141 0.13817964494228363 0.07976508140563965 0.9871898889541626 190.0 19.0 1.0 1.0
3.8669164 2.2672448 -1.405672 0.08766647428274155 0.0395897775888443 0.9953628182411194 217.0 20.0 1.0 1.0
3.9434378 2.2569172 -1.4248643 0.09787462651729584 0.0980452299118042 0.9903573989868164 241.0 20.0 1.0 1.0
4.0057168 2.3438733 -1.3227804 0.29726845026016235 -0.9521589875221252 0.07088468968868256 255.0 21.0 1.0 1.0
4.0133295 2.2922516 -1.3172804 0.3489607274532318 -0.936918318271637 -0.02026047185063362 255.0 21.0 1.0 1.0
3.9997139 2.3356922 -1.1892028 0.20727378129959106 -0.977642834186554 0.03538202866911888 255.0 22.0 1.0 1.0
4.0172091 2.2898343 -1.1872036 0.30094340443611145 -0.9535624384880066 0.012322220019996166 255.0 22.0 1.0 1.0
4.006526 2.3359292 -1.0632174 0.17952029407024384 -0.9835247993469238 0.021244868636131287 255.0 23.0 1.0 1.0
4.0205879 2.2880559 -1.0605234 0.25990861654281616 -0.9652392864227295 0.027581222355365753 255.0 23.0 1.0 1.0
4.0132928 2.3370674 -0.93900877 0.13322539627552032 -0.9884791970252991 0.07183272391557693 255.0 24.0 1.0 1.0
4.0170779 2.2832921 -0.93423164 0.2024354189634323 -0.9783154129981995 0.04380405694246292 255.0 24.0 1.0 1.0
4.031281 2.3437788 -0.81763387 0.096403568983078 -0.9943328499794006 0.04481763765215874 255.0 25.0 1.0 1.0
4.0281706 2.2858889 -0.8120811 0.18292921781539917 -0.9828534722328186 0.023151880130171776 255.0 25.0 1.0 1.0
4.0563507 2.3555143 -0.69801229 0.060471609234809875 -0.9969971179962158 0.048372533172369 255.0 26.0 1.0 1.0
4.036025 2.287565 -0.69031918 0.14172033965587616 -0.9897122383117676 0.01962057314813137 255.0 26.0 1.0 1.0
4.0438766 2.3464005 -0.57392824 0.03861547261476517 -0.9985503554344177 0.037496499717235565 255.0 27.0 1.0 1.0
4.0509295 2.294153 -0.5714736 0.11125372350215912 -0.9935787916183472 0.020585540682077408 255.0 27.0 1.0 1.0
4.0359149 2.3389735 -0.45137993 0.003617447568103671 -0.9982012510299683 0.05984253063797951 255.0 28.0 1.0 1.0
4.0359025 2.2828763 -0.44866022 0.06752215325832367 -0.9966914057731628 0.045244716107845306 255.0 28.0 1.0 1.0
4.0450745 2.3433461 -0.33163533 -0.038524080067873 -0.9916020631790161 0.12345580011606216 255.0 29.0 1.0 1.0
4.0658932 2.2989051 -0.33134514 0.05410264432430267 -0.9976877570152283 0.04113392531871796 255.0 29.0 1.0 1.0
4.0792198 2.3621719 -0.21371156 -0.11440235376358032 -0.9894582629203796 0.08879472315311432 255.0 30.0 1.0 1.0
4.061954 2.2957599 -0.21150294 0.0073888651095330715 -0.9981095194816589 0.06101495027542114 255.0 30.0 1.0 1.0
4.0692286 2.3554549 -0.093445286 -0.15115107595920563 -0.9847358465194702 0.08630489557981491 255.0 31.0 1.0 1.0
4.0553346 2.2911036 -0.092539325 -0.022312669083476067 -0.9993228316307068 0.029257982969284058 255.0 31.0 1.0 1.0
5.3720794 1.9124651 0.032836128 0.0 -0.9999999403953552 0.0 31.0 32.0 1.0 5.0
5.350174 1.8418167 0.0326389 -0.3567316234111786 -0.9292285442352295 0.096316859126091 32.0 32.0 1.0 5.0
5.3175125 1.8910589 0.17623648 0.2877136468887329 -0.9551984071731567 0.06940384209156036 32.0 33.0 1.0 5.0
5.3785858 1.8495785 0.17762284 0.06301289051771164 -0.9207093715667725 0.3851279318332672 30.0 33.0 1.0 5.0
5.3345065 1.8961344 0.32126522 0.2326328158378601 -0.9725514650344849 -0.005072194151580334 31.0 34.0 1.0 5.0
5.4409142 1.8700169 0.32646868 0.033911239355802536 -0.9782934784889221 0.2044306844472885 30.0 34.0 1.0 5.0
5.3513846 1.9022144 0.46783224 0.26006507873535156 -0.9653465151786804 -0.021733678877353668 29.0 35.0 1.0 5.0
5.3973694 1.8551613 0.47015274 0.26526060700416565 -0.9634719491004944 -0.03685857728123665 29.0 35.0 1.0 5.0
5.3952894 1.9157727 0.61924654 0.23437683284282684 -0.971977949142456 -0.01806756854057312 30.0 36.0 1.0 5.0
5.3962069 1.8527509 0.61713952 0.2920056879520416 -0.9559181928634644 -0.030873293057084084 31.0 36.0 1.0 5.0
5.3679609 1.9040622 0.76486313 0.20980848371982574 -0.9776804447174072 0.011014148592948914 31.0 37.0 1.0 5.0
5.4100685 1.8554899 0.7680819 0.2552850544452667 -0.9667448401451111 -0.01529641728848219 31.0 37.0 1.0 5.0
5.3487601 1.8942004 0.91046768 0.08158591389656067 -0.9937764406204224 -0.07584282010793686 31.0 38.0 1.0 5.0
5.3533106 1.8330114 0.907974 0.1837368756532669 -0.9668896794319153 -0.17710256576538086 31.0 38.0 1.0 1.0
5.0663757 1.7914205 1.0048203 -0.0766773521900177 -0.9770858287811279 0.19855447113513947 118.0 39.0 1.0 2.0
5.0662065 1.731957 1.0011854 0.0679587796330452 -0.8895006775856018 0.4518519341945648 124.0 39.0 1.0 2.0
5.3359041 1.884603 1.2104985 0.572594404220581 -0.8056403398513794 -0.15191856026649475 32.0 40.0 1.0 5.0
5.3590016 1.8299321 1.2113686 0.14900259673595428 -0.9809426665306091 -0.12469824403524399 32.0 40.0 1.0 5.0
5.3900385 1.8995693 1.3791171 0.4172045886516571 -0.9052954912185669 -0.07987818121910095 30.0 41.0 1.0 5.0
5.376452 1.8317974 1.3707201 0.21357613801956177 -0.960491418838501 -0.17844146490097046 31.0 41.0 1.0 5.0
5.3521233 1.8821237 1.5260582 0.21561039984226227 -0.9734841585159302 -0.07642444223165512 31.0 42.0 1.0 5.0
5.4373307 1.8483837 1.5447707 0.5705713033676147 -0.8071168065071106 -0.15169291198253632 31.0 42.0 1.0 5.0
5.3971081 1.8927406 1.7015684 0.0948021411895752 -0.9943729639053345 -0.04727591574192047 31.0 43.0 1.0 5.0
5.4129457 1.8349476 1.7004645 0.22806021571159363 -0.967659056186676 -0.10781721770763397 31.0 43.0 1.0 5.0
4.7656283 1.6669765 1.6488051 0.6964788436889648 -0.06991707533597946 -0.7141630053520203 187.0 44.0 1.0 1.0
4.7827702 1.6170363 1.6488365 0.10923442989587784 -0.5051725506782532 -0.8560774326324463 127.0 44.0 1.0 1.0
4.4213376 1.5424733 1.6690179 -0.12833963334560394 -0.015319946222007275 -0.991611897945404 100.0 45.0 1.0 1.0
4.4514794 1.5009562 1.6744132 -0.18903635442256927 -0.14846166968345642 -0.9706823825836182 139.0 45.0 1.0 1.0
4.1432686 1.4408312 1.6964936 -0.09440572559833527 -0.7222009897232056 -0.6852103471755981 229.0 46.0 1.0 1.0
4.1439247 1.3926743 1.6907554 -0.05303362384438515 -0.7514850497245789 -0.6576151251792908 223.0 46.0 1.0 1.0
3.9216962 1.360153 1.7361242 -0.1803574562072754 -0.018587494269013405 -0.9834255576133728 184.0 47.0 1.0 1.0
3.9601703 1.3272673 1.7469449 -0.10662698745727539 -0.024374399334192276 -0.994000256061554 223.0 47.0 1.0 1.0
3.4204185 2.0075066 1.7910793 -0.28506454825401306 -0.12283992022275925 -0.950604259967804 229.0 48.0 1.0 1.0
3.4411974 1.9716384 1.7910825 -0.08737311512231827 -0.05401265621185303 -0.9947103261947632 229.0 48.0 1.0 1.0
3.1787798 1.8702947 1.7903193 -0.10057760775089264 -0.01690201833844185 -0.9947856664657593 232.0 49.0 1.0 1.0
3.2012565 1.8387557 1.7920678 -0.16335780918598175 -0.09288985282182693 -0.9821841716766357 247.0 49.0 1.0 1.0
2.9486079 1.7398552 1.7822784 -0.16166359186172485 -0.049646392464637756 -0.9855963587760925 232.0 50.0 1.0 1.0
2.9696858 1.7107121 1.7841268 -0.1100776344537735 -0.0038744292687624693 -0.9939154982566833 232.0 50.0 1.0 1.0
2.774791 1.6432781 1.7971294 -0.06815781444311142 -0.04991864785552025 -0.9964249730110168 241.0 51.0 1.0 1.0
2.7766597 1.6054524 1.7874013 -0.12889420986175537 -0.08428267389535904 -0.9880701899528503 247.0 51.0 1.0 1.0
2.599788 1.5446576 1.8012408 -0.11927630752325058 -0.05217710882425308 -0.9914891123771667 255.0 52.0 1.0 1.0
2.5919726 1.5036234 1.784875 -0.09694574773311615 -0.029619183391332626 -0.9948487877845764 244.0 52.0 1.0 1.0
2.4261181 1.4473217 1.7965249 -0.15409155189990997 -0.08624785393476486 -0.9842851161956787 255.0 53.0 1.0 1.0
2.4235766 1.4117115 1.7836533 -0.11338644474744797 -0.05112222582101822 -0.9922348260879517 250.0 53.0 1.0 1.0
2.267993 1.359547 1.7948972 -0.07385127246379852 -0.024975610896945 -0.996956467628479 253.0 54.0 1.0 1.0
2.2791922 1.3341117 1.792653 -0.1441868245601654 -0.07474590092897415 -0.9867234826087952 255.0 54.0 1.0 1.0
2.1283765 1.2820206 1.7996215 -0.09366051107645035 -0.06806076318025589 -0.9932750463485718 255.0 55.0 1.0 1.0
2.1332476 1.2547994 1.7925856 -0.12356092780828476 -0.09811066091060638 -0.9874750375747681 255.0 55.0 1.0 1.0
1.9975153 1.2104276 1.8052208 -0.13648079335689545 -0.07804117351770401 -0.9875639081001282 255.0 56.0 1.0 1.0
1.9991244 1.1830631 1.7954394 -0.0819653794169426 -0.017289943993091583 -0.99648517370224 250.0 56.0 1.0 1.0
1.8593752 1.1343782 1.7974213 -0.11652523279190063 -0.06491411477327347 -0.9910640716552734 247.0 57.0 1.0 1.0
1.8764001 1.1180598 1.8025131 -0.13054418563842773 -0.04741036891937256 -0.9903082847595215 253.0 57.0 1.0 1.0
1.7460254 1.0724324 1.8069396 -0.12975266575813293 -0.09592950344085693 -0.9868950247764587 255.0 58.0 1.0 1.0
1.7545298 1.0526081 1.8042948 -0.14919398725032806 -0.07793549448251724 -0.9857317805290222 255.0 58.0 1.0 1.0
1.6293935 1.009127 1.8097564 -0.146856427192688 -0.04562649875879288 -0.9881049394607544 255.0 59.0 1.0 1.0
1.6348362 0.98906207 1.8042645 -0.14674536883831024 -0.059922561049461365 -0.9873576760292053 253.0 59.0 1.0 1.0
1.5292748 0.95681638 1.8276933 0.22025001049041748 -0.030027225613594055 -0.9749811291694641 255.0 60.0 1.0 1.0
1.5511481 0.94812685 1.8419278 0.22647328674793243 -0.02998332679271698 -0.9735558032989502 255.0 60.0 1.0 1.0
1.4280785 0.90400547 1.8421167 -0.3021760880947113 -0.03607649356126785 -0.9525692462921143 255.0 61.0 1.0 1.0
1.4097981 0.87201881 1.8067458 -0.29607829451560974 -0.029380207881331444 -0.9547116756439209 238.0 61.0 1.0 1.0
1.2952356 0.83050728 1.8105267 -0.3749697804450989 -0.049295660108327866 -0.925725519657135 238.0 62.0 1.0 1.0
1.2906295 0.80872077 1.792236 0.0012261169031262398 -0.053175460547208786 -0.9985844492912292 232.0 62.0 1.0 1.0
1.1967487 0.77955449 1.8231585 0.20263142883777618 -0.4347229599952698 -0.8774715662002563 250.0 63.0 1.0 1.0
1.2193621 0.77629536 1.8452033 -0.004672949202358723 -0.25133469700813293 -0.9678889513015747 255.0 63.0 1.0 1.0
1.2555832 0.39705107 -1.4778504 0.17185956239700317 0.049340277910232544 0.9838850498199463 17.0 2.0 1.0 1.0
1.1196058 0.31369123 -1.5318102 0.07959228754043579 0.07504498213529587 0.993998646736145 118.0 0.0 1.0 1.0
1.179891 0.32589081 -1.4834239 0.10176150500774384 0.025559687986969948 0.9944804310798645 20.0 1.0 1.0 1.0
1.3236703 0.37313446 -1.5436274 0.09540785104036331 0.01035004761070013 0.9953844547271729 250.0 2.0 1.0 1.0
1.3069491 0.38328028 -1.5286814 0.09412718564271927 0.009057885967195034 0.9955189228057861 214.0 2.0 1.0 1.0
1.4104508 0.40498787 -1.5293915 0.12733088433742523 0.05493808165192604 0.990337610244751 255.0 3.0 1.0 1.0
1.4114397 0.42132908 -1.5351844 0.12733088433742523 0.05493808165192604 0.990337610244751 255.0 3.0 1.0 1.0
1.5176505 0.4422797 -1.5353434 0.10098542273044586 0.057879410684108734 0.9932029247283936 255.0 4.0 1.0 1.0
1.4909989 0.45155671 -1.5130218 0.11621363461017609 0.0732240304350853 0.9905213713645935 255.0 4.0 1.0 1.0
1.6055127 0.47391832 -1.5180315 0.07322662323713303 0.0026690491940826178 0.9973118305206299 255.0 5.0 1.0 1.0
1.6032988 0.49158847 -1.5207353 0.07308058440685272 0.0631791427731514 0.9953228235244751 255.0 5.0 1.0 1.0
1.7245331 0.51485288 -1.526485 0.1332138031721115 0.04514724016189575 0.9900584816932678 255.0 6.0 1.0 1.0
1.7190541 0.53290361 -1.5264977 0.15605930984020233 0.06840930134057999 0.9853758811950684 255.0 6.0 1.0 1.0
1.8383459 0.55400008 -1.525156 0.1537669450044632 0.08349435031414032 0.9845731854438782 255.0 7.0 1.0 1.0
1.8324505 0.57324064 -1.5251696 0.12954218685626984 0.05889487639069557 0.9898232817649841 255.0 7.0 1.0 1.0
1.9553941 0.5940429 -1.5220674 0.05614175274968147 0.027545852586627007 0.9980427026748657 255.0 8.0 1.0 1.0
1.9582452 0.61738753 -1.5292634 0.11250047385692596 0.08413253724575043 0.9900835156440735 255.0 8.0 1.0 1.0
2.0915082 0.64049286 -1.5280962 0.08810548484325409 0.032975442707538605 0.9955652356147766 255.0 9.0 1.0 1.0
2.0753243 0.65941304 -1.5212255 0.14234432578086853 0.07302258908748627 0.9871199131011963 255.0 9.0 1.0 1.0
2.2388182 0.68936217 -1.5344923 0.14200422167778015 0.025753919035196304 0.9895308613777161 255.0 10.0 1.0 1.0
2.2187409 0.70873219 -1.5257236 0.13531716167926788 0.027435975149273872 0.9904224872589111 253.0 10.0 1.0 1.0
2.3773811 0.73650241 -1.528055 0.21625640988349915 0.009910017251968384 0.9762863516807556 250.0 11.0 1.0 1.0
2.369545 0.76137775 -1.5280719 0.212289497256279 0.06519833952188492 0.9750294089317322 255.0 11.0 1.0 1.0
2.5435522 0.79227513 -1.5308734 0.10344763845205307 0.03169383481144905 0.9941298961639404 250.0 12.0 1.0 1.0
2.5252264 0.81569952 -1.5249002 0.15086452662944794 0.04904553294181824 0.9873371124267578 253.0 12.0 1.0 1.0
2.7208753 0.85106951 -1.5325919 0.12439673393964767 0.04517582803964615 0.9912036657333374 255.0 13.0 1.0 1.0
2.7218711 0.88278651 -1.538305 0.15289199352264404 0.07413025200366974 0.9854586720466614 255.0 13.0 1.0 1.0
2.8963218 0.90920472 -1.5241497 0.18146027624607086 0.027989119291305542 0.9829999208450317 244.0 14.0 1.0 1.0
2.8866489 0.93950474 -1.5241699 0.11194927245378494 0.07158508151769638 0.9911321401596069 244.0 14.0 1.0 1.0
3.1037591 0.97780645 -1.5230324 0.21381384134292603 -0.04430533945560455 0.9758691191673279 229.0 15.0 1.0 1.0
3.0830276 1.0069088 -1.5179565 0.14027953147888184 -0.04490572214126587 0.9890931248664856 229.0 15.0 1.0 1.0
2.9049058 1.599054 -1.445647 0.07210640609264374 0.012516042217612267 0.9973184466362 238.0 16.0 1.0 1.0
2.8912027 1.6312031 -1.4472533 0.10218162089586258 0.007808563765138388 0.9947351217269897 241.0 16.0 1.0 1.0
3.1253064 1.7159845 -1.4406456 0.11883273720741272 0.052772194147109985 0.9915108680725098 226.0 17.0 1.0 1.0
3.0974786 1.743186 -1.4361436 0.14606283605098724 0.006801505107432604 0.9892519116401672 232.0 17.0 1.0 1.0
3.3840528 1.8525323 -1.4389646 0.10938234627246857 0.03858812153339386 0.9932504296302795 226.0 18.0 1.0 1.0
3.328527 1.8677342 -1.4235566 0.13623978197574615 -0.01988367922604084 0.9904763102531433 208.0 18.0 1.0 1.0
3.6610701 1.9990599 -1.4301687 0.1457386612892151 0.08574116230010986 0.9856006503105164 202.0 19.0 1.0 1.0
3.6267376 2.0299215 -1.4249725 0.08427951484918594 0.06760197877883911 0.9941463470458984 202.0 19.0 1.0 1.0
4.0333567 2.1975968 -1.4404048 0.18327143788337708 0.010115638375282288 0.9830102920532227 255.0 20.0 1.0 1.0
3.9701452 2.217417 -1.4260143 0.12289245426654816 0.08608777076005936 0.988679051399231 244.0 20.0 1.0 1.0
4.0502615 2.2022388 -1.3139261 0.567506730556488 -0.8219993710517883 0.04746638238430023 255.0 21.0 1.0 1.0
4.0471487 2.2557743 -1.3205271 0.4072551429271698 -0.9119132161140442 0.0505712516605854 255.0 21.0 1.0 1.0
4.0676298 2.2070994 -1.188144 0.5250809192657471 -0.8508398532867432 -0.019017770886421204 255.0 22.0 1.0 1.0
4.0375342 2.2458217 -1.1861553 0.36313503980636597 -0.9317288994789124 -0.0037541945930570364 255.0 22.0 1.0 1.0
4.0607033 2.1996982 -1.058673 0.5342217087745667 -0.84514319896698 -0.018447117879986763 255.0 23.0 1.0 1.0
4.0442767 2.2458916 -1.0604724 0.3304544687271118 -0.9437731504440308 -0.009596801362931728 255.0 23.0 1.0 1.0
4.0742917 2.2043159 -0.93656057 0.45579320192337036 -0.8900063037872314 0.011882859282195568 255.0 24.0 1.0 1.0
4.0407147 2.2411661 -0.93418068 0.4239712059497833 -0.9040685892105103 0.05392976850271225 255.0 24.0 1.0 1.0
4.0785537 2.2029629 -0.81271702 0.4122876822948456 -0.9109269380569458 -0.015191889367997646 255.0 25.0 1.0 1.0
4.0449376 2.2398334 -0.81064296 0.3777252733707428 -0.925527811050415 0.026865752413868904 255.0 25.0 1.0 1.0
4.065558 2.193223 -0.68730444 0.3737831115722656 -0.9273384809494019 -0.018151894211769104 255.0 26.0 1.0 1.0
4.0562382 2.2433295 -0.68967652 0.3931543827056885 -0.9193668961524963 0.013929801061749458 255.0 26.0 1.0 1.0
4.0700431 2.1938283 -0.5674957 0.3477282226085663 -0.9375953674316406 -4.4708041968988255e-05 255.0 27.0 1.0 1.0
4.0642447 2.2459199 -0.56995213 0.3279244005680084 -0.9435069561004639 0.0475413016974926 255.0 27.0 1.0 1.0
4.0757284 2.1941593 -0.44782653 0.3416224718093872 -0.9397082328796387 0.015571055002510548 255.0 28.0 1.0 1.0
4.0560374 2.2386363 -0.44822103 0.26257291436195374 -0.9647797346115112 0.01598649099469185 255.0 28.0 1.0 1.0
4.0814295 2.1963286 -0.32871649 0.290223091840744 -0.9564944505691528 -0.029817016795277596 255.0 29.0 1.0 1.0
4.072207 2.246644 -0.32986546 0.19867099821567535 -0.9799903035163879 0.012196418829262257 255.0 29.0 1.0 1.0
4.0949697 2.2027085 -0.21070997 0.24433408677577972 -0.9695462584495544 0.01675894297659397 255.0 30.0 1.0 1.0
4.0577059 2.2377443 -0.2099822 0.17653308808803558 -0.9840291738510132 0.02286282181739807 255.0 30.0 1.0 1.0
4.0952826 2.2019765 -0.092317142 0.20668068528175354 -0.9781447052955627 0.02271445095539093 255.0 31.0 1.0 1.0
4.0685248 2.2427974 -0.09224198 0.059659816324710846 -0.9977319240570068 0.03117389604449272 255.0 31.0 1.0 1.0
5.4640017 1.8173112 0.033250961 -0.06748086959123611 -0.9938027262687683 0.08833163976669312 32.0 32.0 1.0 5.0
5.5607319 1.7829864 0.18241815 -0.22405025362968445 -0.9626449346542358 0.15204042196273804 31.0 33.0 1.0 5.0
5.40518 1.7957715 0.17795284 -0.07118870317935944 -0.9972838759422302 -0.018890896812081337 32.0 33.0 1.0 5.0
5.5015998 1.7630918 0.32794032 -0.14202508330345154 -0.9869866371154785 0.07540694624185562 29.0 34.0 1.0 5.0
5.4487538 1.8092691 0.32587945 -0.19593778252601624 -0.9764994382858276 0.08976200222969055 31.0 34.0 1.0 5.0
5.4577084 1.749143 0.47223419 -0.3526122272014618 -0.9262323379516602 0.13326039910316467 31.0 35.0 1.0 5.0
5.4618325 1.8137016 0.47415668 0.02562125027179718 -0.8940565586090088 0.4472207725048065 30.0 35.0 1.0 5.0
5.471591 1.7515817 0.62154579 -0.22435712814331055 -0.9708757400512695 0.08404846489429474 33.0 36.0 1.0 5.0
5.4076843 1.7937437 0.61636692 0.346924364566803 -0.9377485513687134 0.01646587811410427 31.0 36.0 1.0 5.0
5.4816108 1.752779 0.77298087 -0.13716436922550201 -0.9903745651245117 -0.018547479063272476 31.0 37.0 1.0 5.0
5.4441776 1.8038226 0.7702896 0.42064422369003296 -0.9065316915512085 0.03547779098153114 31.0 37.0 1.0 5.0
5.2850308 1.6870551 0.89039391 -0.0 -1.0 -0.0 36.0 38.0 1.0 1.0
5.3271241 1.7620915 0.90047193 -0.14562062919139862 -0.985073447227478 -0.09178680181503296 35.0 38.0 1.0 5.0
5.0450354 1.6077367 0.99029469 -0.03141418844461441 -0.7188244462013245 0.6944815516471863 28.0 39.0 1.0 2.0
5.0578408 1.6702917 0.99612886 0.038554392755031586 -0.7579502463340759 0.6511720418930054 97.0 39.0 1.0 2.0
5.485487 1.7458955 1.2315363 0.009152673184871674 -0.9999556541442871 -0.0022275312803685665 31.0 40.0 1.0 5.0
5.381496 1.7750472 1.2122875 0.01985381729900837 -0.9993323683738708 -0.030672941356897354 32.0 40.0 1.0 5.0
5.4728026 1.7377684 1.3858336 0.22211208939552307 -0.9582136273384094 -0.18025735020637512 32.0 41.0 1.0 5.0
5.4211063 1.7840061 1.3773632 0.1990218311548233 -0.9667091965675354 -0.16082163155078888 31.0 41.0 1.0 1.0
5.4857492 1.7377721 1.5480071 0.07031942158937454 -0.979623556137085 -0.18813015520572662 31.0 42.0 1.0 5.0
5.470974 1.7962728 1.5490068 0.18156950175762177 -0.9640738368034363 -0.19389204680919647 31.0 42.0 1.0 5.0
5.4756308 1.7294323 1.7085632 0.04299101606011391 -0.9758116006851196 -0.21434429287910461 30.0 43.0 1.0 5.0
5.442697 1.7818536 1.7039676 0.08555351197719574 -0.9845852851867676 -0.15255329012870789 31.0 43.0 1.0 5.0
4.7864165 1.5075541 1.63902 -0.11463657766580582 -0.568143904209137 -0.8149054050445557 139.0 44.0 1.0 1.0
4.799345 1.566968 1.6489103 -0.06805769354104996 -0.5296522378921509 -0.84548020362854 145.0 44.0 1.0 1.0
4.4206634 1.3883926 1.6517045 -0.1554872840642929 -0.09928995370864868 -0.9828352332115173 103.0 45.0 1.0 1.0
4.4274378 1.4415432 1.6597234 -0.12213046103715897 -0.11476437002420425 -0.9858565926551819 109.0 45.0 1.0 1.0
4.1150532 1.2879345 1.6677828 -0.1592550128698349 -0.8235276341438293 -0.5444632172584534 193.0 46.0 1.0 1.0
4.1368914 1.3423984 1.6821688 -0.10960041731595993 -0.7883296608924866 -0.6054123044013977 223.0 46.0 1.0 1.0
3.9799037 1.2419958 1.7439479 -0.07617731392383575 -0.025814488530158997 -0.9967600703239441 241.0 47.0 1.0 1.0
3.9842954 1.289219 1.7516307 -0.15588614344596863 -0.09176068753004074 -0.9835036993026733 229.0 47.0 1.0 1.0
3.4591639 1.8870698 1.7796131 -0.1133449375629425 -0.08260408043861389 -0.9901158213615417 232.0 48.0 1.0 1.0
3.4424522 1.9249092 1.7812535 -0.12580537796020508 -0.05378922447562218 -0.9905955791473389 229.0 48.0 1.0 1.0
3.1915295 1.7455677 1.7659258 -0.16013336181640625 -0.07913126796483994 -0.9839184284210205 226.0 49.0 1.0 1.0
3.2013924 1.7946607 1.7816322 -0.11024241149425507 -0.04359521344304085 -0.9929481148719788 241.0 49.0 1.0 1.0
2.9953704 1.6431644 1.7786276 -0.15570850670337677 -0.05213410034775734 -0.9864263534545898 238.0 50.0 1.0 1.0
2.9780548 1.6743824 1.7786235 -0.10893972963094711 -0.007577849086374044 -0.9940195083618164 238.0 50.0 1.0 1.0
2.8033955 1.5437144 1.7835442 -0.13460136950016022 -0.10943624377250671 -0.9848381280899048 250.0 51.0 1.0 1.0
2.7871325 1.5729275 1.7835405 -0.12819123268127441 -0.07726738601922989 -0.9887349605560303 241.0 51.0 1.0 1.0
2.6016765 1.4375169 1.7705849 -0.19461743533611298 -0.09994340687990189 -0.9757742285728455 238.0 52.0 1.0 1.0
2.6044869 1.4747753 1.7828577 -0.06299961358308792 0.02873186767101288 -0.9975999593734741 247.0 52.0 1.0 1.0
2.4672246 1.3689532 1.7944103 -0.056957412511110306 -0.06540126353502274 -0.9962321519851685 255.0 53.0 1.0 1.0
2.4410672 1.3879877 1.7858249 -0.06732669472694397 -0.07575883716344833 -0.9948506355285645 247.0 53.0 1.0 1.0
2.2920229 1.2781599 1.7814506 -0.10584574937820435 -0.07175423204898834 -0.9917902946472168 253.0 54.0 1.0 1.0
2.2929432 1.3102349 1.7926767 -0.1059778481721878 -0.051612935960292816 -0.9930281043052673 255.0 54.0 1.0 1.0
2.1617379 1.2115524 1.7949551 -0.12116795033216476 -0.1188998892903328 -0.9854852557182312 255.0 55.0 1.0 1.0
2.1321239 1.2243947 1.7808784 -0.09553573280572891 -0.09325503557920456 -0.9910481572151184 253.0 55.0 1.0 1.0
2.028832 1.1441621 1.800352 -0.1586165428161621 -0.06483032554388046 -0.9852095246315002 255.0 56.0 1.0 1.0
2.0250211 1.1700305 1.8076869 -0.11182256788015366 -0.017239511013031006 -0.9935786128044128 255.0 56.0 1.0 1.0
1.8885211 1.0725487 1.7923499 -0.08970970660448074 -0.04261410981416702 -0.9950558543205261 250.0 57.0 1.0 1.0
1.8852463 1.0968562 1.7999849 -0.12565328180789948 -0.042447514832019806 -0.9911656975746155 255.0 57.0 1.0 1.0
1.763016 1.0083112 1.791085 -0.13520333170890808 -0.07006379216909409 -0.9883374571800232 250.0 58.0 1.0 1.0
1.7705464 1.0372609 1.8096009 -0.14919398725032806 -0.07793549448251724 -0.9857317805290222 255.0 58.0 1.0 1.0
1.6651294 0.96052557 1.8152637 0.24118554592132568 -0.0728003978729248 -0.9677445888519287 255.0 59.0 1.0 1.0
1.6575412 0.97932768 1.8180087 0.24118554592132568 -0.0728003978729248 -0.9677445888519287 255.0 59.0 1.0 1.0
1.5583761 0.90848261 1.8277063 0.22651657462120056 -0.02273990958929062 -0.9737418293952942 255.0 60.0 1.0 1.0
1.5584888 0.93044478 1.8390931 0.22647328674793243 -0.02998332679271698 -0.9735558032989502 255.0 60.0 1.0 1.0
1.4369297 0.84790033 1.8185468 -0.43693938851356506 -0.0017800829373300076 -0.8994892239570618 247.0 61.0 1.0 1.0
1.4233968 0.86004925 1.8126509 -0.43693938851356506 -0.0017800829373300076 -0.8994892239570618 250.0 61.0 1.0 1.0
1.3227118 0.79090917 1.8135833 0.3115580976009369 -0.06822475790977478 -0.9477747678756714 250.0 62.0 1.0 1.0
1.3099928 0.80195749 1.8074863 0.0012246852274984121 -0.07179831713438034 -0.9974184036254883 244.0 62.0 1.0 1.0
1.2267753 0.74558252 1.8326126 -0.19185930490493774 -0.07570896297693253 -0.9784979224205017 255.0 63.0 1.0 1.0
1.225243 0.76222968 1.8420609 -0.004672949202358723 -0.25133469700813293 -0.9678889513015747 255.0 63.0 1.0 1.0
1.0890419 0.26859987 -1.4775442 0.12190355360507965 0.1291859894990921 0.9840988516807556 20.0 0.0 1.0 1.0
1.2233909 0.31040451 -1.5297513 0.16809047758579254 0.07039028406143188 0.98325514793396 232.0 1.0 1.0 1.0
1.2176236 0.32257265 -1.5266715 0.14624591171741486 0.07063854485750198 0.986723005771637 145.0 1.0 1.0 1.0
1.3183202 0.34201184 -1.5286474 0.11502417176961899 0.01032846700400114 0.9933090209960938 253.0 2.0 1.0 1.0
1.3274966 0.35926577 -1.5436141 0.09540785104036331 0.01035004761070013 0.9953844547271729 255.0 2.0 1.0 1.0
1.423954 0.37676108 -1.5351472 0.09534525126218796 0.07129129022359848 0.9928881525993347 255.0 3.0 1.0 1.0
1.4119391 0.3894791 -1.5264859 0.20015288889408112 0.010972404852509499 0.9797031879425049 255.0 3.0 1.0 1.0
1.5210282 0.40891594 -1.5297316 0.17758886516094208 0.05725208297371864 0.9824379682540894 255.0 4.0 1.0 1.0
1.5221893 0.42637902 -1.5353268 0.17758886516094208 0.05725208297371864 0.9824379682540894 255.0 4.0 1.0 1.0
1.6236352 0.44251171 -1.5260758 0.12681519985198975 0.05389625206589699 0.9904611110687256 255.0 5.0 1.0 1.0
1.6189193 0.45950982 -1.5260887 0.12681519985198975 0.05389625206589699 0.9904611110687256 255.0 5.0 1.0 1.0
1.7407951 0.48023686 -1.5316352 0.1433584839105606 0.08176462352275848 0.9862874150276184 255.0 6.0 1.0 1.0
1.7298191 0.49678552 -1.5264648 0.1433584839105606 0.08176462352275848 0.9862874150276184 255.0 6.0 1.0 1.0
1.8525409 0.51621729 -1.5276121 0.1613994538784027 0.038073860108852386 0.9861544370651245 255.0 7.0 1.0 1.0
1.8440348 0.53474063 -1.525134 0.12228290736675262 0.08386515080928802 0.988945722579956 255.0 7.0 1.0 1.0
1.9859031 0.55814779 -1.5363909 0.12887747585773468 0.10351524502038956 0.9862430095672607 255.0 8.0 1.0 1.0
1.9768795 0.57803732 -1.5340123 0.12947630882263184 0.019184134900569916 0.991396963596344 255.0 8.0 1.0 1.0
2.117054 0.60011774 -1.5372341 0.16401344537734985 0.03855154290795326 0.9857044816017151 255.0 9.0 1.0 1.0
2.1232336 0.6259672 -1.5464311 0.12031936645507812 0.04000009223818779 0.9919289946556091 255.0 9.0 1.0 1.0
2.2623913 0.64507395 -1.5410343 0.1084965392947197 0.024795522913336754 0.9937875270843506 255.0 10.0 1.0 1.0
2.2330756 0.66211897 -1.5256786 0.15996697545051575 0.0917651429772377 0.9828478097915649 247.0 10.0 1.0 1.0
2.4119117 0.69218373 -1.5405873 0.21915926039218903 0.036223430186510086 0.9750164151191711 250.0 11.0 1.0 1.0
2.4143326 0.72033596 -1.5468967 0.16048255562782288 0.02661464735865593 0.9866797924041748 255.0 11.0 1.0 1.0
2.5862103 0.74651402 -1.5467949 0.13279171288013458 0.053813353180885315 0.9896820187568665 255.0 12.0 1.0 1.0
2.5384119 0.76165646 -1.522851 0.11349160224199295 0.03430616855621338 0.9929465651512146 241.0 12.0 1.0 1.0
2.7482269 0.79685098 -1.5382273 0.14612559974193573 0.029021821916103363 0.9888402223587036 253.0 13.0 1.0 1.0
2.7464828 0.82763308 -1.5420436 0.11868354678153992 -0.03936447203159332 0.9921514987945557 255.0 13.0 1.0 1.0
2.9455843 0.85733271 -1.5402733 0.08859457820653915 0.05343637987971306 0.9946333765983582 250.0 14.0 1.0 1.0
2.9330311 0.88711953 -1.5384969 0.1684182733297348 0.01453985646367073 0.9856083989143372 247.0 14.0 1.0 1.0
3.1513433 0.92071992 -1.5365576 0.14742153882980347 -0.046544332057237625 0.9879779815673828 232.0 15.0 1.0 1.0
3.1380699 0.95264065 -1.5348817 0.14251121878623962 -0.049673885107040405 0.9885459542274475 238.0 15.0 1.0 1.0
2.9507103 1.5446823 -1.4520165 0.18951210379600525 0.04898252338171005 0.98065584897995 232.0 16.0 1.0 1.0
2.9473009 1.5824437 -1.4584309 0.13899648189544678 0.023485783487558365 0.9900143146514893 247.0 16.0 1.0 1.0
3.1703787 1.6553259 -1.4451079 0.10285117477178574 0.057891540229320526 0.9930106401443481 214.0 17.0 1.0 1.0
3.1430719 1.6832069 -1.440608 0.10970214754343033 0.04354171082377434 0.9930102825164795 220.0 17.0 1.0 1.0
3.4353611 1.7882 -1.4445207 0.1690794974565506 0.04445228353142738 0.9845994710922241 208.0 18.0 1.0 1.0
3.4032319 1.8170422 -1.438923 0.16291949152946472 0.03835202753543854 0.9858936667442322 214.0 18.0 1.0 1.0
3.7390249 1.9411432 -1.4444188 0.11828398704528809 0.03634558990597725 0.9923144578933716 196.0 19.0 1.0 1.0
3.7018034 1.9713258 -1.4379245 0.10480276495218277 0.05990806594491005 0.9926870465278625 199.0 19.0 1.0 1.0
4.0920024 2.1197035 -1.4451432 0.1835881471633911 0.011058468371629715 0.9829410910606384 250.0 20.0 1.0 1.0
4.0527372 2.1535096 -1.4391532 0.16166508197784424 -0.05382496863603592 0.98537677526474 253.0 20.0 1.0 1.0
4.1227789 2.1310983 -1.3226583 0.7374715805053711 -0.6751214861869812 -0.018620088696479797 255.0 21.0 1.0 1.0
4.0866518 2.1669672 -1.3182703 0.6458418965339661 -0.7626786231994629 0.03477657586336136 255.0 21.0 1.0 1.0
4.1335626 2.1321266 -1.1940675 0.6599399447441101 -0.7483277916908264 -0.06696872413158417 255.0 22.0 1.0 1.0
4.1075954 2.1734972 -1.1930785 0.6227263808250427 -0.7800941467285156 -0.06053946167230606 255.0 22.0 1.0 1.0
4.1335497 2.1284964 -1.0657839 0.6878204941749573 -0.7236018180847168 -0.057475049048662186 255.0 23.0 1.0 1.0
4.0938096 2.1625764 -1.0613101 0.6073022484779358 -0.7944709062576294 0.00013755244435742497 255.0 23.0 1.0 1.0
4.122983 2.1203587 -0.93729466 0.6753318905830383 -0.7357100248336792 -0.051552075892686844 255.0 24.0 1.0 1.0
4.0866976 2.1561112 -0.93412185 0.5992175936698914 -0.8004335761070251 -0.015629643574357033 255.0 24.0 1.0 1.0
4.116714 2.1135328 -0.81126869 0.651930034160614 -0.756659209728241 -0.04953833669424057 255.0 25.0 1.0 1.0
4.0734563 2.1455226 -0.80711675 0.546411395072937 -0.837234377861023 -0.02174936980009079 255.0 25.0 1.0 1.0
4.1316495 2.1184893 -0.69079107 0.6141834855079651 -0.7888878583908081 -0.02084929868578911 255.0 26.0 1.0 1.0
4.0847449 2.1487558 -0.68666059 0.5195094347000122 -0.8536630272865295 -0.037003424018621445 255.0 26.0 1.0 1.0
4.1185498 2.1099913 -0.56792414 0.5289435386657715 -0.8483768105506897 -0.021804580464959145 255.0 27.0 1.0 1.0
4.0962496 2.1530015 -0.56793296 0.49284324049949646 -0.8697695732116699 -0.02462862990796566 255.0 27.0 1.0 1.0
4.1242476 2.1102111 -0.44815269 0.5278509259223938 -0.848587691783905 -0.035668861120939255 255.0 28.0 1.0 1.0
4.0948954 2.1495798 -0.44738603 0.4525710940361023 -0.8916755318641663 -0.009705728851258755 255.0 28.0 1.0 1.0
4.1193385 2.106822 -0.32808375 0.49918490648269653 -0.8654285073280334 -0.04298973083496094 255.0 29.0 1.0 1.0
4.0900073 2.1461296 -0.32752159 0.42705225944519043 -0.904116690158844 -0.01412458810955286 255.0 29.0 1.0 1.0
4.1329932 2.1129167 -0.21028087 0.4665820896625519 -0.883135974407196 -0.04870160296559334 255.0 30.0 1.0 1.0
4.0858917 2.1430864 -0.20900491 0.402906209230423 -0.915240466594696 -0.0012110670795664191 255.0 30.0 1.0 1.0
4.1261563 2.1085436 -0.091927834 0.46046188473701477 -0.8870987296104431 -0.032105833292007446 255.0 31.0 1.0 1.0
4.1003351 2.1497669 -0.091854937 0.33447444438934326 -0.9423176050186157 0.012817200273275375 255.0 31.0 1.0 1.0
5.0428872 1.5034164 0.030778337 -0.019420066848397255 -0.9969868659973145 0.07510139048099518 10.0 32.0 1.0 2.0
5.0421839 1.5608499 0.030826736 -0.08904369920492172 -0.987903892993927 0.12695319950580597 10.0 32.0 1.0 2.0
5.0365648 1.5572802 0.16502954 -0.09424538910388947 -0.9954535365104675 -0.013789134100079536 11.0 33.0 1.0 2.0
5.6761527 1.7537633 0.33724833 -0.25496530532836914 -0.9646003246307373 -0.06737220287322998 23.0 34.0 1.0 5.0
5.6280289 1.7390176 0.48538938 -0.10953648388385773 -0.9937924146652222 0.019452644512057304 24.0 35.0 1.0 5.0
5.5959725 1.7270914 0.63363141 -0.03276190161705017 -0.9993720054626465 0.013497922569513321 29.0 36.0 1.0 5.0
5.6956511 1.6906955 0.79805845 -0.11308866739273071 -0.9934635758399963 0.015526153147220612 17.0 37.0 1.0 5.0
5.2130346 1.5447682 0.87281245 0.06721082329750061 -0.9747126698493958 -0.21311500668525696 36.0 38.0 1.0 1.0
5.2570224 1.6177995 0.88289022 -0.049415186047554016 -0.9712783694267273 -0.2327585220336914 37.0 38.0 1.0 1.0
5.1491256 1.5230314 1.0043515 -0.13120172917842865 -0.9646759033203125 0.22844372689723969 38.0 39.0 1.0 2.0
5.0427165 1.549153 0.98670512 0.06239335238933563 -0.7470660209655762 0.661815345287323 40.0 39.0 1.0 2.0
5.554481 1.6407514 1.2391818 -0.07006410509347916 -0.9798957109451294 0.18680328130722046 30.0 40.0 1.0 5.0
5.5333018 1.6976347 1.2383059 0.19700555503368378 -0.9803654551506042 0.00850804802030325 32.0 40.0 1.0 5.0
5.4817429 1.6152521 1.3794008 -0.00860501453280449 -0.9788417816162109 -0.20443733036518097 35.0 41.0 1.0 5.0
5.5129223 1.6872948 1.3915427 0.00860276073217392 -0.9978601932525635 -0.06481508910655975 31.0 41.0 1.0 5.0
5.5689812 1.6368164 1.5616261 -0.03480613976716995 -0.9761955142021179 -0.21408140659332275 29.0 42.0 1.0 5.0
5.5589776 1.6972438 1.5636609 0.014689957723021507 -0.9823563098907471 -0.18644055724143982 30.0 42.0 1.0 5.0
5.447938 1.5962504 1.6893185 -0.05204378068447113 -0.9739753007888794 -0.22059805691242218 31.0 43.0 1.0 5.0
5.4713316 1.6654224 1.701813 -0.03701511397957802 -0.9759138822555542 -0.2149927169084549 30.0 43.0 1.0 5.0
4.7656846 1.3922375 1.6217619 -0.09792415052652359 -0.5777918100357056 -0.8102885484695435 112.0 44.0 1.0 1.0
4.7763729 1.4497313 1.6304106 -0.08797506242990494 -0.49662691354751587 -0.8634940981864929 130.0 44.0 1.0 1.0
4.4052052 1.2830389 1.6357048 -0.01582236774265766 0.009398069232702255 -0.9998306035995483 193.0 45.0 1.0 1.0
4.4204392 1.337762 1.6464058 -0.1847558170557022 -0.17796356976032257 -0.9665372967720032 199.0 45.0 1.0 1.0
4.1123095 1.1933182 1.6563432 -0.05183198302984238 -0.640633225440979 -0.7660956382751465 196.0 46.0 1.0 1.0
4.1460886 1.2502404 1.6750532 -0.07483607530593872 -0.5918467044830322 -0.8025690317153931 220.0 46.0 1.0 1.0
3.9800758 1.1513588 1.733242 -0.18781599402427673 0.03703221678733826 -0.981505811214447 232.0 47.0 1.0 1.0
3.9819956 1.1971594 1.7393813 -0.12362103909254074 -0.007097560912370682 -0.9923040866851807 235.0 47.0 1.0 1.0
3.4686339 1.7992585 1.7648559 -0.09521255642175674 -0.0034828796051442623 -0.9954509139060974 229.0 48.0 1.0 1.0
3.4657547 1.8439804 1.7730751 -0.1459718942642212 -0.1039392426609993 -0.983813464641571 229.0 48.0 1.0 1.0
3.2144578 1.6718472 1.7589879 -0.1494685262441635 -0.05223776772618294 -0.987385630607605 232.0 49.0 1.0 1.0
