ply
format ascii 1.0
element vertex 419
property float x
property float y
property float z
property float nx
property float ny
property float nz
property float intensity
property float ring
property float return
property float label
end_header
-0.8583771 -1.0704648 0.49538413 0.016830092296004295 0.9988067150115967 -0.04584531858563423 255.0 45.0 1.0 1.0
-0.86104977 -1.0971719 0.50351179 0.009854392148554325 0.9991953372955322 -0.03888088837265968 255.0 45.0 1.0 1.0
-0.86025554 -1.0705409 0.53761053 0.014162681065499783 0.9985708594322205 -0.05153490975499153 255.0 46.0 1.0 1.0
-0.8512879 -1.0824363 0.53905827 0.012066224589943886 0.9985436797142029 -0.0525815449655056 255.0 46.0 1.0 1.0
-0.8563413 -1.0638032 0.57780904 0.016783060505986214 0.9990178942680359 -0.04100946709513664 255.0 47.0 1.0 1.0
-0.85426396 -1.0843071 0.58402586 0.016783060505986214 0.9990178942680359 -0.04100946709513664 255.0 47.0 1.0 1.0
-0.80661821 -1.5482241 0.79669881 -0.03009636327624321 0.9966728687286377 -0.07574412226676941 255.0 48.0 1.0 1.0
-0.80683368 -1.5890568 0.8132726 0.028851378709077835 0.9967095851898193 -0.07574690878391266 255.0 48.0 1.0 1.0
-0.79445851 -1.5289057 0.84483802 -0.012477467767894268 0.9932300448417664 -0.11549185961484909 255.0 49.0 1.0 1.0
-0.79300362 -1.5660031 0.86065584 0.02007652074098587 0.9988220930099487 -0.04417310282588005 255.0 49.0 1.0 1.0
-0.80088896 -1.5459921 0.91520226 0.004965375643223524 0.9981141686439514 -0.06118392571806908 255.0 50.0 1.0 1.0
-0.79102767 -1.5669611 0.92262483 -0.010572557337582111 0.9974156022071838 -0.07106636464595795 255.0 50.0 1.0 1.0
-0.78641754 -1.5233908 0.9643954 0.005451657343655825 0.9981017112731934 -0.061345458030700684 255.0 51.0 1.0 1.0
-0.78138155 -1.55337 0.97809571 0.0035347118973731995 0.9958450198173523 -0.09099556505680084 255.0 51.0 1.0 1.0
-0.78219259 -1.520532 1.0278389 -0.015166877768933773 0.9972590804100037 -0.0724182203412056 255.0 52.0 1.0 1.0
-0.77543575 -1.547056 1.0401781 -0.001839331816881895 0.9989221096038818 -0.04638252407312393 255.0 52.0 1.0 1.0
-0.76980144 -1.5036741 1.0838931 -0.0022054570727050304 0.9989128112792969 -0.046565160155296326 255.0 53.0 1.0 1.0
-0.76452452 -1.5327704 1.0989867 -0.003957083448767662 0.9985151886940002 -0.054331596940755844 255.0 53.0 1.0 1.0
-0.7710098 -1.5139737 1.1633865 0.008616742677986622 0.9990673661231995 -0.04231101647019386 255.0 54.0 1.0 1.0
-0.76096922 -1.5338188 1.1724049 -0.0010238292161375284 0.9986501932144165 -0.051930300891399384 255.0 54.0 1.0 1.0
-0.75575572 -1.4918993 1.2218119 -0.002422864316031337 0.9993577599525452 -0.035751767456531525 255.0 55.0 1.0 1.0
-0.74436551 -1.5084494 1.2288715 0.012366569600999355 0.9992843270301819 -0.03574913740158081 255.0 55.0 1.0 1.0
-0.7428059 -1.4760778 1.2881536 0.010141889564692974 0.9992073178291321 -0.03849410265684128 255.0 56.0 1.0 1.0
-0.74118966 -1.5121379 1.3127141 0.00038701394805684686 0.9989246726036072 -0.046362780034542084 255.0 56.0 1.0 1.0
-0.73607665 -1.4737517 1.3710465 0.012727232649922371 0.9982008934020996 -0.05859382823109627 255.0 57.0 1.0 1.0
-0.72731614 -1.4952352 1.3838181 0.008333860896527767 0.9995092153549194 -0.030198050662875175 250.0 57.0 1.0 1.0
-0.72455299 -1.461707 1.4509305 -0.008554862812161446 0.9976375102996826 -0.06816375255584717 255.0 58.0 1.0 1.0
-0.71699196 -1.4853996 1.466856 0.007062060292810202 0.9992897510528564 -0.03701450675725937 247.0 58.0 1.0 1.0
-0.71093923 -1.4477718 1.536082 -0.008294666185975075 0.9979310631752014 -0.06375513225793839 244.0 59.0 1.0 1.0
-0.71323282 -1.4917673 1.5746654 0.028109300881624222 0.9975684285163879 -0.0637732669711113 255.0 59.0 1.0 1.0
-0.69975317 -1.4417307 1.6377403 0.0 0.9980385899543762 -0.0626019760966301 253.0 60.0 1.0 1.0
-0.69895589 -1.4793769 1.672015 0.0016845125937834382 0.9981968402862549 -0.06000351905822754 255.0 60.0 1.0 1.0
-0.68558794 -1.4318572 1.7454723 0.0049653914757072926 0.9880563020706177 -0.15401378273963928 255.0 61.0 1.0 1.0
-0.67850322 -1.4560751 1.7661622 0.003445171285420656 0.9878302216529846 -0.15549761056900024 255.0 61.0 1.0 1.0
-0.63845527 -1.3537401 1.7771723 -0.07443211227655411 0.8545862436294556 -0.5139477849006653 253.0 62.0 1.0 1.0
-0.62745112 -1.3674141 1.7863334 -0.19832129776477814 0.20189400017261505 -0.9591180086135864 255.0 62.0 1.0 1.0
-0.59005576 -1.2750887 1.8102866 -0.12072185426950455 -0.06209403648972511 -0.9907423853874207 255.0 63.0 1.0 1.0
-0.57160789 -1.2700427 1.794482 -0.12360046803951263 -0.06207187473773956 -0.990388810634613 255.0 63.0 1.0 1.0
-0.38138705 -0.41813755 -0.74397045 0.0759289413690567 0.8716345429420471 0.4842395782470703 255.0 0.0 1.0 1.0
-0.38829094 -0.43476686 -0.7662425 0.2604474723339081 0.9246538281440735 0.2778172194957733 255.0 0.0 1.0 1.0
-0.39670798 -0.44096562 -0.71724105 0.14990448951721191 0.1955777108669281 0.9691635966300964 255.0 1.0 1.0 1.0
-0.38193941 -0.43361092 -0.69876248 0.1863398402929306 0.23133902251720428 0.9548611640930176 247.0 1.0 1.0 1.0
-0.42455071 -0.47711027 -0.71500582 0.16534818708896637 -0.06536795943975449 0.9840666055679321 255.0 2.0 1.0 1.0
-0.42127794 -0.48354268 -0.71799016 0.16116628050804138 0.23238490521907806 0.9591780304908752 253.0 2.0 1.0 1.0
-0.44857237 -0.5091238 -0.70525306 0.15797942876815796 -0.027489863336086273 0.9870596528053284 244.0 3.0 1.0 1.0
-0.44865063 -0.52009904 -0.71389794 0.15797942876815796 -0.027489863336086273 0.9870596528053284 247.0 3.0 1.0 1.0
-0.49300343 -0.56392151 -0.72530168 0.12095507234334946 0.06648135930299759 0.9904292225837708 255.0 4.0 1.0 1.0
-0.47958457 -0.56031936 -0.71418279 0.12095507234334946 0.06648135930299759 0.9904292225837708 253.0 4.0 1.0 1.0
-0.51276881 -0.59091699 -0.70719844 0.14058779180049896 0.07392473518848419 0.9873045682907104 244.0 5.0 1.0 1.0
-0.51616073 -0.60756779 -0.72060519 0.14058779180049896 0.07392473518848419 0.9873045682907104 255.0 5.0 1.0 1.0
-0.55390549 -0.64240831 -0.7169072 0.1504574865102768 0.07500700652599335 0.9857670068740845 255.0 6.0 1.0 1.0
-0.55305797 -0.65518093 -0.72465307 0.1504574865102768 0.07500700652599335 0.9857670068740845 255.0 6.0 1.0 1.0
-0.5873875 -0.68488061 -0.71398783 0.08975020051002502 0.04342767223715782 0.9950169920921326 255.0 7.0 1.0 1.0
-0.58421415 -0.69580156 -0.71895409 0.08975020051002502 0.04342767223715782 0.9950169920921326 255.0 7.0 1.0 1.0
-0.61877996 -0.72482842 -0.70689541 -0.1241346225142479 0.02139456756412983 0.9920347332954407 255.0 8.0 1.0 1.0
-0.62764055 -0.75099468 -0.72595388 -0.1241346225142479 0.02139456756412983 0.9920347332954407 255.0 8.0 1.0 1.0
-0.64779103 -0.76233202 -0.69578296 -0.10573454201221466 0.06388295441865921 0.9923402667045593 229.0 9.0 1.0 1.0
-0.6313625 -0.75897717 -0.68665731 -0.10586503893136978 0.040262915194034576 0.993565022945404 196.0 9.0 1.0 1.0
-1.0237467 -1.2085003 -1.0323051 0.08347353339195251 0.9965030550956726 0.0037201871164143085 255.0 10.0 1.0 1.0
-1.0324291 -1.2449484 -1.0541482 0.08347353339195251 0.9965030550956726 0.0037201871164143085 255.0 10.0 1.0 1.0
-1.0253073 -1.2146859 -0.97074175 0.045487336814403534 0.9987219572067261 -0.022026939317584038 255.0 11.0 1.0 1.0
-1.0321032 -1.2490396 -0.98950762 0.02282201126217842 0.9982615113258362 -0.05434180051088333 255.0 11.0 1.0 1.0
-1.0232601 -1.2161812 -0.90812236 0.019151533022522926 0.9974672198295593 -0.06850100308656693 255.0 12.0 1.0 1.0
-1.0215067 -1.2402338 -0.91805005 0.019151533022522926 0.9974672198295593 -0.06850100308656693 255.0 12.0 1.0 1.0
-1.0084139 -1.2015634 -0.83814734 0.014146658591926098 0.9988077282905579 -0.0467219278216362 255.0 13.0 1.0 1.0
-1.0159318 -1.2365915 -0.85511661 0.018346183001995087 0.9997486472129822 -0.012895195744931698 255.0 13.0 1.0 1.0
-1.0034306 -1.1982179 -0.77956372 0.025453928858041763 0.9991708993911743 -0.03177269548177719 255.0 14.0 1.0 1.0
-1.0067112 -1.2280376 -0.79206705 0.025453928858041763 0.9991708993911743 -0.03177269548177719 255.0 14.0 1.0 1.0
-0.99930495 -1.1958774 -0.72425514 0.008298760280013084 0.9998560547828674 -0.014797694981098175 255.0 15.0 1.0 1.0
-0.99820751 -1.2203161 -0.73269069 0.008287003263831139 0.9984395503997803 -0.05522681027650833 255.0 15.0 1.0 1.0
-0.99563742 -1.8305482 -0.90181428 0.01573834754526615 0.9984714984893799 -0.052981920540332794 255.0 16.0 1.0 1.0
-1.0005016 -1.8862716 -0.92407012 -0.01608971133828163 0.9978401064872742 -0.06368827819824219 255.0 16.0 1.0 1.0
-0.98933077 -1.8145332 -0.82841694 0.008581699803471565 0.9993190169334412 -0.03588881343603134 255.0 17.0 1.0 1.0
-0.98770905 -1.8575734 -0.84331447 0.01430517714470625 0.9994843602180481 -0.028748884797096252 255.0 17.0 1.0 1.0
-0.98570383 -1.80274 -0.75965178 -0.010484272614121437 0.9996973276138306 -0.02225561812520027 255.0 18.0 1.0 1.0
-0.99149179 -1.8593066 -0.77908713 0.005607561208307743 0.9992492198944092 -0.038332778960466385 255.0 18.0 1.0 1.0
-0.97330505 -1.7757514 -0.68761909 0.001262013684026897 0.9999082684516907 -0.013485816307365894 255.0 19.0 1.0 1.0
-0.9707278 -1.8159076 -0.69921035 0.0012592109851539135 0.9976876974105835 -0.0679541826248169 255.0 19.0 1.0 1.0
-0.97589278 -1.7768813 -0.62895471 0.01353952195495367 0.9973886609077454 -0.07094034552574158 255.0 20.0 1.0 1.0
-0.97166365 -1.813944 -0.63845348 -0.01858234405517578 0.9990696907043457 -0.03891532123088837 255.0 20.0 1.0 1.0
-0.95903826 -1.7426909 -0.56030744 0.005444762296974659 0.9994295239448547 -0.033329807221889496 255.0 21.0 1.0 1.0
-0.95348179 -1.7763858 -0.5679158 0.013564239256083965 0.9992094039916992 -0.03736940398812294 255.0 21.0 1.0 1.0
-0.95983118 -1.7406185 -0.50376207 0.014754144474864006 0.9977156519889832 -0.06592375040054321 255.0 22.0 1.0 1.0
-0.9544062 -1.7744797 -0.51065791 0.005471046082675457 0.9993340969085693 -0.036078471690416336 255.0 22.0 1.0 1.0
-0.9424876 -1.7064471 -0.44047514 -0.009026627987623215 0.9992843866348267 -0.036731887608766556 255.0 23.0 1.0 1.0
-0.94492245 -1.7540072 -0.45019117 0.011026258580386639 0.9992685914039612 -0.03661515563726425 255.0 23.0 1.0 1.0
-0.93335837 -1.6879176 -0.3836287 -0.011184703558683395 0.9994116425514221 -0.03242271766066551 255.0 24.0 1.0 1.0
-0.94170839 -1.7459389 -0.39457339 0.00961550697684288 0.9988934397697449 -0.04603681340813637 255.0 24.0 1.0 1.0
-0.94092774 -1.6988759 -0.33412319 -0.04230740666389465 0.9958604574203491 -0.08044923096895218 255.0 25.0 1.0 1.0
-0.93994832 -1.7398529 -0.34024653 -0.04230740666389465 0.9958604574203491 -0.08044923096895218 255.0 25.0 1.0 1.0
-0.93030441 -1.6777096 -0.2791366 -0.12586471438407898 0.9898897409439087 -0.06539417058229446 255.0 26.0 1.0 1.0
-0.92209655 -1.7047726 -0.2820341 -0.023903729394078255 0.9928722977638245 -0.11676128208637238 255.0 26.0 1.0 1.0
-0.93595356 -1.6865789 -0.23040546 -0.1111336424946785 0.9934869408607483 -0.02515958808362484 255.0 27.0 1.0 1.0
-0.92390686 -1.7067724 -0.23184563 -0.07792307436466217 0.9927607774734497 -0.09139993786811829 255.0 27.0 1.0 1.0
-0.91809106 -1.6524428 -0.17664255 -0.016082825139164925 0.9989497065544128 -0.04290449991822243 255.0 28.0 1.0 1.0
-0.91781437 -1.6934836 -0.18001308 -0.11505626142024994 0.9924439787864685 -0.04262508451938629 255.0 28.0 1.0 1.0
-0.91831422 -1.6522386 -0.1277841 0.0017988558392971754 0.9993329048156738 -0.03647604212164879 255.0 29.0 1.0 1.0
-0.92378867 -1.7038687 -0.13104573 -0.04934454709291458 0.9981171488761902 -0.03643166646361351 255.0 29.0 1.0 1.0
-0.9104355 -1.6367966 -0.078602433 0.007321253418922424 0.9995361566543579 -0.02956061251461506 255.0 30.0 1.0 1.0
-0.90849012 -1.6743486 -0.07996577 -0.006944454740732908 0.99910968542099 -0.041613150388002396 255.0 30.0 1.0 1.0
-0.90719837 -1.6310517 -0.03075248 -0.007170523516833782 0.9976295828819275 -0.068437859416008 255.0 31.0 1.0 1.0
-0.90341568 -1.6650771 -0.031234983 -0.021084127947688103 0.9968876838684082 -0.07596290111541748 255.0 31.0 1.0 1.0
-0.92377466 -1.118313 0.013666968 0.02025257982313633 0.9987480044364929 -0.04573945328593254 255.0 32.0 1.0 1.0
-0.91954875 -1.1372663 0.013768013 0.00046280244714580476 0.997854471206665 -0.06547017395496368 255.0 32.0 1.0 1.0
-0.9083519 -1.0988951 0.049802188 0.011866891756653786 0.9982126355171204 -0.05857143551111221 255.0 33.0 1.0 1.0
-0.93199378 -1.151862 0.051729131 0.016690151765942574 0.9986249208450317 -0.04969701170921326 255.0 33.0 1.0 1.0
-0.9176119 -1.1097296 0.087108709 0.009970762766897678 0.9995920658111572 -0.026763468980789185 255.0 34.0 1.0 1.0
-0.90592986 -1.11929 0.087100685 0.004073226824402809 0.9996334910392761 -0.026764579117298126 255.0 34.0 1.0 1.0
-0.91588902 -1.1076767 0.12385613 0.009901246055960655 0.9988901019096375 -0.046048566699028015 255.0 35.0 1.0 1.0
-0.90924376 -1.1234145 0.12453175 0.009901246055960655 0.9988901019096375 -0.046048566699028015 255.0 35.0 1.0 1.0
-0.88860309 -1.0739515 0.15616249 0.0008491631015203893 0.9988852143287659 -0.04719742760062218 255.0 36.0 1.0 1.0
-0.90732616 -1.120277 0.16147782 0.012579269707202911 0.9973782896995544 -0.07126227021217346 255.0 36.0 1.0 1.0
-0.90380305 -1.09157 0.19587347 0.007761356886476278 0.9981911778450012 -0.05961732193827629 255.0 37.0 1.0 1.0
-0.88732034 -1.0948319 0.19477391 -0.007907498627901077 0.9993663430213928 -0.03470366820693016 255.0 37.0 1.0 1.0
-0.89834839 -1.0838573 0.23150507 -0.005462557543069124 0.9999624490737915 -0.006724642589688301 255.0 38.0 1.0 1.0
-0.90186203 -1.1116086 0.23538032 0.007770904805511236 0.999419093132019 -0.033181995153427124 255.0 38.0 1.0 1.0
-0.88225782 -1.0633442 0.26395929 -0.004494605585932732 0.9987683296203613 -0.04941387102007866 255.0 39.0 1.0 1.0
-0.89088362 -1.0969371 0.2699402 0.007997778244316578 0.9996686577796936 -0.024465544149279594 255.0 39.0 1.0 1.0
-0.87795496 -1.0574375 0.29971486 0.020820269361138344 0.9979824423789978 -0.05997961014509201 255.0 40.0 1.0 1.0
-0.87668383 -1.0787194 0.30310786 0.020820269361138344 0.9979824423789978 -0.05997961014509201 255.0 40.0 1.0 1.0
-0.87835932 -1.0564514 0.33738816 0.015387597493827343 0.9992207884788513 -0.036346860229969025 255.0 41.0 1.0 1.0
-0.88685828 -1.0897104 0.34499469 0.012046393007040024 0.9986661076545715 -0.05020793899893761 255.0 41.0 1.0 1.0
-0.86824304 -1.0428343 0.3709079 0.01729004643857479 0.9979924559593201 -0.060927554965019226 255.0 42.0 1.0 1.0
-0.84994715 -1.0429116 0.36774319 0.025057019665837288 0.9978039264678955 -0.06131451576948166 255.0 42.0 1.0 1.0
-0.87973887 -1.0547941 0.41474757 -0.005465897731482983 0.9983941316604614 -0.05638468265533447 255.0 43.0 1.0 1.0
-0.8855899 -1.0847297 0.42281798 0.029776647686958313 0.9979664087295532 -0.05636052414774895 255.0 43.0 1.0 1.0
-0.86112922 -1.0306869 0.44470388 -0.005469692870974541 0.9990873336791992 -0.04236103966832161 255.0 44.0 1.0 1.0
-0.86230057 -1.0543625 0.45097107 -0.00845617987215519 0.9987958669662476 -0.048324842005968094 255.0 44.0 1.0 1.0
-0.87341154 -1.0435615 0.49131584 -0.00845617987215519 0.9987958669662476 -0.048324842005968094 255.0 45.0 1.0 1.0
-0.84811074 -1.0352038 0.48317268 0.0238638985902071 0.9991971254348755 -0.03218252584338188 255.0 45.0 1.0 1.0
-0.85619891 -1.0208565 0.52159739 -0.00845617987215519 0.9987958669662476 -0.048324842005968094 255.0 46.0 1.0 1.0
-0.84781277 -1.0326632 0.52304578 0.014162681065499783 0.9985708594322205 -0.05153490975499153 255.0 46.0 1.0 1.0
-0.85951942 -1.023031 0.56535882 0.012171797454357147 0.9986975789070129 -0.04954876750707626 255.0 47.0 1.0 1.0
-0.84640443 -1.0291481 0.56379533 0.012174083851277828 0.9988850951194763 -0.04561076685786247 255.0 47.0 1.0 1.0
-0.81092876 -1.4798863 0.77016783 -0.0016357973217964172 0.9988753795623779 -0.04738447070121765 255.0 48.0 1.0 1.0
-0.81253654 -1.5204142 0.78674293 -0.0016357973217964172 0.9988753795623779 -0.04738447070121765 255.0 48.0 1.0 1.0
-0.80740577 -1.4772202 0.82549798 0.010303886607289314 0.9967315196990967 -0.08012507855892181 255.0 49.0 1.0 1.0
-0.80540234 -1.510973 0.83955783 -0.010186995379626751 0.9967182874679565 -0.08030594885349274 255.0 49.0 1.0 1.0
-0.79924518 -1.4666487 0.87802786 0.0027156525757163763 0.996415913105011 -0.08454615622758865 255.0 50.0 1.0 1.0
-0.79380441 -1.4937215 0.88917017 0.0027156525757163763 0.996415913105011 -0.08454615622758865 255.0 50.0 1.0 1.0
-0.79323757 -1.4605812 0.93501735 -0.0037907524965703487 0.9977691173553467 -0.06665032356977463 255.0 51.0 1.0 1.0
-0.79747933 -1.5058063 0.95851499 0.015664203092455864 0.9987744092941284 -0.046951062977313995 255.0 51.0 1.0 1.0
-0.78126776 -1.4434607 0.98667157 0.015664203092455864 0.9987744092941284 -0.046951062977313995 255.0 52.0 1.0 1.0
-0.7773037 -1.4728135 1.0010707 0.008891699835658073 0.9981319308280945 -0.060445692390203476 255.0 52.0 1.0 1.0
-0.78361315 -1.4545667 1.0601629 -0.004920148756355047 0.9988981485366821 -0.046673379838466644 255.0 53.0 1.0 1.0
-0.77458942 -1.4746408 1.0687828 -0.0001622306153876707 0.9988181591033936 -0.04860376939177513 255.0 53.0 1.0 1.0
-0.7714076 -1.4392544 1.1182345 0.011276266537606716 0.9978741407394409 -0.06418788433074951 255.0 54.0 1.0 1.0
-0.7654562 -1.464833 1.1317703 0.008605174720287323 0.9977260828018188 -0.0668477863073349 255.0 54.0 1.0 1.0
-0.76560968 -1.4357847 1.1888127 0.0016864655772224069 0.9993525743484497 -0.03593846783041954 255.0 55.0 1.0 1.0
-0.75349742 -1.4494817 1.1935154 0.019202331081032753 0.9987980127334595 -0.04509629309177399 255.0 55.0 1.0 1.0
-0.74849629 -1.4127436 1.2463876 0.009027726016938686 0.9989115595817566 -0.045762307941913605 255.0 56.0 1.0 1.0
-0.73943949 -1.4317455 1.2562045 0.00514489971101284 0.999040961265564 -0.04348297789692879 250.0 56.0 1.0 1.0
-0.73820072 -1.4035221 1.3199155 0.010792078450322151 0.9993025660514832 -0.03575054928660393 255.0 57.0 1.0 1.0
-0.73748499 -1.4385704 1.3454735 0.02433338761329651 0.9982802867889404 -0.0533333420753479 255.0 57.0 1.0 1.0
-0.73292446 -1.4037509 1.4084362 0.005927393212914467 0.9989383220672607 -0.04568454995751381 253.0 58.0 1.0 1.0
-0.73173553 -1.4380255 1.4349889 0.016005143523216248 0.9987810850143433 -0.04669233411550522 255.0 58.0 1.0 1.0
-0.71986043 -1.3913318 1.4919811 -0.0002754118759185076 0.9990572929382324 -0.04340924695134163 253.0 59.0 1.0 1.0
-0.71306497 -1.4143475 1.5085101 -0.008309626951813698 0.9997309446334839 -0.02165599726140499 247.0 59.0 1.0 1.0
-0.70563674 -1.3793613 1.5834603 0.018847396597266197 0.997836172580719 -0.0629892572760582 253.0 60.0 1.0 1.0
-0.70112884 -1.4067441 1.6063068 0.031599100679159164 0.9958218336105347 -0.08567647635936737 250.0 60.0 1.0 1.0
-0.69486034 -1.376264 1.6952028 -0.006894340272992849 0.9991812705993652 -0.0398673452436924 253.0 61.0 1.0 1.0
-0.6922819 -1.4076586 1.7247666 -0.006896920967847109 0.9995552897453308 -0.029012348502874374 255.0 61.0 1.0 1.0
-0.67019659 -1.3469357 1.7863569 -0.15629878640174866 0.9126446843147278 -0.3776908218860626 255.0 62.0 1.0 1.0
-0.65940922 -1.3608729 1.7955185 0.12956948578357697 0.9531477093696594 -0.2733515501022339 255.0 62.0 1.0 1.0
-0.61024344 -1.249162 1.7913452 -0.3310829997062683 0.4184294044971466 -0.8457545042037964 255.0 63.0 1.0 1.0
-0.6002726 -1.2621648 1.8008091 -0.11939020454883575 0.21939346194267273 -0.968303918838501 255.0 63.0 1.0 1.0
-0.38172024 -0.40127265 -0.72806752 0.0759289413690567 0.8716345429420471 0.4842395782470703 253.0 0.0 1.0 1.0
-0.38245088 -0.41057166 -0.7376141 0.0759289413690567 0.8716345429420471 0.4842395782470703 253.0 0.0 1.0 1.0
-0.3953954 -0.42139277 -0.69876307 0.1519179493188858 0.195516899228096 0.9688622355461121 250.0 1.0 1.0 1.0
-0.39268214 -0.42739147 -0.701846 0.14990448951721191 0.1955777108669281 0.9691635966300964 250.0 1.0 1.0 1.0
-0.43265358 -0.46615541 -0.71202809 0.1497332900762558 -0.06553307920694351 0.9865522980690002 255.0 2.0 1.0 1.0
-0.42415452 -0.46671602 -0.70606893 0.1497332900762558 -0.06553307920694351 0.9865522980690002 244.0 2.0 1.0 1.0
-0.46103406 -0.50165606 -0.70813674 0.13927814364433289 -5.0170150643680245e-05 0.9902532696723938 250.0 3.0 1.0 1.0
-0.4576067 -0.5085215 -0.71102053 0.13927814364433289 -5.0170150643680245e-05 0.9902532696723938 253.0 3.0 1.0 1.0
-0.48147056 -0.52797657 -0.69193661 0.09005856513977051 -0.0024902471341192722 0.9959334135055542 244.0 4.0 1.0 1.0
-0.4835715 -0.54156977 -0.70306289 0.15769319236278534 0.06613512337207794 0.9852710962295532 247.0 4.0 1.0 1.0
-0.52704465 -0.58224374 -0.70988178 0.1242937371134758 0.07755497097969055 0.9892099499702454 255.0 5.0 1.0 1.0
-0.52288276 -0.58995473 -0.7125662 0.1208898276090622 0.07411869615316391 0.9898949861526489 253.0 5.0 1.0 1.0
-0.56521386 -0.62838924 -0.71432948 0.16451016068458557 0.07936759293079376 0.9831771850585938 255.0 6.0 1.0 1.0
-0.55253571 -0.62739575 -0.70659238 0.16451016068458557 0.07936759293079376 0.9831771850585938 253.0 6.0 1.0 1.0
-0.59743774 -0.66774601 -0.70902902 0.1482708603143692 0.047450095415115356 0.9878078103065491 255.0 7.0 1.0 1.0
-0.59247482 -0.676328 -0.71151423 0.08975020051002502 0.04342767223715782 0.9950169920921326 255.0 7.0 1.0 1.0
-0.64667195 -0.7261011 -0.72118777 0.10530222952365875 0.01799684949219227 0.9942774176597595 255.0 8.0 1.0 1.0
-0.63268983 -0.72556984 -0.71404773 -0.13318729400634766 0.017936233431100845 0.990928590297699 255.0 8.0 1.0 1.0
-0.6897884 -0.77808166 -0.72317821 -0.2140042781829834 0.06275473535060883 0.9748148322105408 255.0 9.0 1.0 1.0
-0.67513657 -0.77782387 -0.71633524 -0.10573454201221466 0.06388295441865921 0.9923402667045593 255.0 9.0 1.0 1.0
-0.99557906 -1.1265239 -0.97990429 -0.07391420006752014 0.015406902879476547 0.9971455931663513 244.0 10.0 1.0 1.0
-1.0297827 -1.1901047 -1.0257642 0.04686128348112106 0.9980971217155457 0.040076807141304016 255.0 10.0 1.0 1.0
-1.0279764 -1.1673205 -0.94990188 0.012068032287061214 0.9995971322059631 -0.025689683854579926 255.0 11.0 1.0 1.0
-1.0223808 -1.1857772 -0.95616221 0.04529999569058418 0.9980729222297668 -0.04240581393241882 255.0 11.0 1.0 1.0
-1.0049866 -1.1448846 -0.87043148 0.01520643662661314 0.9996960163116455 -0.01940733566880226 255.0 12.0 1.0 1.0
-1.0087876 -1.1737839 -0.88432598 0.012070419266819954 0.9997948408126831 -0.016271725296974182 255.0 12.0 1.0 1.0
-1.0101348 -1.1536299 -0.81930351 0.02064545452594757 0.9986274838447571 -0.04813311621546745 255.0 13.0 1.0 1.0
-1.0071806 -1.1748593 -0.82684946 0.01292738039046526 0.9989352226257324 -0.04428572207689285 255.0 13.0 1.0 1.0
-0.99535179 -1.1391946 -0.75457567 0.02066868357360363 0.999751091003418 -0.008399191312491894 255.0 14.0 1.0 1.0
-0.98801684 -1.154997 -0.75815344 0.02066868357360363 0.999751091003418 -0.008399191312491894 255.0 14.0 1.0 1.0
-0.99316221 -1.1391333 -0.70234638 0.010755696333944798 0.9982063174247742 -0.058893799781799316 255.0 15.0 1.0 1.0
-0.99059522 -1.1605088 -0.70909578 -0.004049656912684441 0.9998823404312134 -0.01479808334261179 255.0 15.0 1.0 1.0
-0.99916893 -1.7487338 -0.87162089 0.004239645786583424 0.9976070523262024 -0.0690087080001831 255.0 16.0 1.0 1.0
-0.99868184 -1.7911608 -0.88752121 -0.012121705338358879 0.9987391829490662 -0.04871303588151932 255.0 16.0 1.0 1.0
-0.98468924 -1.7193127 -0.79417914 0.004902229644358158 0.9981272220611572 -0.0609743595123291 255.0 17.0 1.0 1.0
-0.98837125 -1.7684189 -0.81205136 0.008578861132264137 0.9989884495735168 -0.04414169490337372 255.0 17.0 1.0 1.0
-0.98588991 -1.7166308 -0.73189926 0.012994800694286823 0.9996180534362793 -0.02438949979841709 255.0 18.0 1.0 1.0
-0.9843694 -1.7563145 -0.74439776 0.006649789400398731 0.9999089241027832 -0.01174850668758154 255.0 18.0 1.0 1.0
-0.9687252 -1.6827601 -0.65931344 -0.002323161344975233 0.9993897080421448 -0.03485337644815445 255.0 19.0 1.0 1.0
-0.9677484 -1.7225304 -0.67090321 -0.009335987269878387 0.9998968243598938 -0.010912369005382061 255.0 19.0 1.0 1.0
-0.96900624 -1.679937 -0.60168117 0.00968481320887804 0.9985688328742981 -0.05259907245635986 255.0 20.0 1.0 1.0
-0.95697951 -1.6999816 -0.60525179 0.005434061866253614 0.9974654316902161 -0.07094580680131912 255.0 20.0 1.0 1.0
-0.95488757 -1.6522161 -0.53751922 -0.0037195433396846056 0.9984592795372009 -0.05536482110619545 255.0 21.0 1.0 1.0
-0.96023434 -1.7023655 -0.55054939 -0.008384409360587597 0.9995751976966858 -0.027912715449929237 255.0 21.0 1.0 1.0
-0.95529151 -1.6496663 -0.48311096 0.01692095771431923 0.999778687953949 -0.012499299831688404 255.0 22.0 1.0 1.0
-0.95322543 -1.6865854 -0.49098834 -0.0014482151018455625 0.9978231191635132 -0.06593085825443268 255.0 22.0 1.0 1.0
-0.94280863 -1.6255758 -0.4245913 0.01029972918331623 0.9991382956504822 -0.0402073971927166 255.0 23.0 1.0 1.0
-0.95072281 -1.6794989 -0.43606961 -0.0029642644803971052 0.9994713664054871 -0.0323755107820034 255.0 23.0 1.0 1.0
-0.94292295 -1.6238846 -0.37346983 0.001732340082526207 0.9993460178375244 -0.03611858934164047 255.0 24.0 1.0 1.0
-0.94714487 -1.6712146 -0.38207117 0.0022311427164822817 0.9993085861206055 -0.03711497783660889 255.0 24.0 1.0 1.0
-0.93867242 -1.6140423 -0.32121849 0.0016901129856705666 0.9990217089653015 -0.044190313667058945 255.0 25.0 1.0 1.0
-0.93728524 -1.6512123 -0.32666177 -0.01908060535788536 0.9989703893661499 -0.0411577969789505 255.0 25.0 1.0 1.0
-0.93539125 -1.6065352 -0.27047932 -0.027188586071133614 0.9982332587242126 -0.052831608802080154 255.0 26.0 1.0 1.0
-0.9400298 -1.6540998 -0.27683452 -0.024408947676420212 0.9979968070983887 -0.058365508913993835 255.0 26.0 1.0 1.0
-0.93910712 -1.6116878 -0.22279498 0.0006495623965747654 0.9997897744178772 -0.020495235919952393 255.0 27.0 1.0 1.0
-0.92020518 -1.6179898 -0.22233394 -0.027220895513892174 0.9994194507598877 -0.02048698253929615 255.0 27.0 1.0 1.0
-0.92844915 -1.5915563 -0.17215855 0.013747841119766235 0.9979999661445618 -0.06170092895627022 255.0 28.0 1.0 1.0
-0.92355126 -1.621963 -0.17440939 -0.016082825139164925 0.9989497065544128 -0.04290449991822243 255.0 28.0 1.0 1.0
-0.91251457 -1.5636934 -0.12236347 0.0005750812124460936 0.9998189210891724 -0.019020872190594673 255.0 29.0 1.0 1.0
-0.91979319 -1.6147802 -0.12562358 0.0017988558392971754 0.9993329048156738 -0.03647604212164879 255.0 29.0 1.0 1.0
-0.91633266 -1.5690389 -0.076232798 -0.0046103051863610744 0.9994897246360779 -0.031608592718839645 255.0 30.0 1.0 1.0
-0.90776205 -1.5924445 -0.076920666 0.007321253418922424 0.9995361566543579 -0.02956061251461506 255.0 30.0 1.0 1.0
-0.90690356 -1.5529658 -0.029606869 -0.004235327709466219 0.9995700716972351 -0.029012000188231468 255.0 31.0 1.0 1.0
-0.90445137 -1.5867071 -0.030088112 0.0089241499081254 0.9970696568489075 -0.07597675919532776 255.0 31.0 1.0 1.0
-0.92352766 -1.0714313 0.013338343 0.011877985671162605 0.9991458654403687 -0.03957880288362503 255.0 32.0 1.0 1.0
-0.91740674 -1.0871679 0.013403646 0.02025257982313633 0.9987480044364929 -0.04573945328593254 255.0 32.0 1.0 1.0
-0.91031754 -1.05539 0.048695255 0.011866891756653786 0.9982126355171204 -0.05857143551111221 255.0 33.0 1.0 1.0
-0.93015987 -1.1015241 0.050346486 0.011866891756653786 0.9982126355171204 -0.05857143551111221 255.0 33.0 1.0 1.0
-0.91982448 -1.0660598 0.085187308 0.009970762766897678 0.9995920658111572 -0.026763468980789185 255.0 34.0 1.0 1.0
-0.90602314 -1.0725956 0.084939845 0.009970762766897678 0.9995920658111572 -0.026763468980789185 255.0 34.0 1.0 1.0
-0.90247583 -1.0459845 0.11906933 0.003321552649140358 0.9989790320396423 -0.045053787529468536 255.0 35.0 1.0 1.0
-0.92232752 -1.0919211 0.12316388 0.009901246055960655 0.9988901019096375 -0.046048566699028015 255.0 35.0 1.0 1.0
-0.91614014 -1.0610951 0.1570486 -0.002330600516870618 0.9989603161811829 -0.045527826994657516 255.0 36.0 1.0 1.0
-0.90240079 -1.0676076 0.15659761 0.009639532305300236 0.9989166259765625 -0.04552583396434784 255.0 36.0 1.0 1.0
-0.90319163 -1.0453898 0.19095953 0.007761356886476278 0.9981911778450012 -0.05961732193827629 255.0 37.0 1.0 1.0
-0.88962448 -1.0517784 0.19040641 0.007761356886476278 0.9981911778450012 -0.05961732193827629 255.0 37.0 1.0 1.0
-0.90281886 -1.0438784 0.22697346 -0.005462557543069124 0.9999624490737915 -0.006724642589688301 255.0 38.0 1.0 1.0
-0.90713292 -1.071362 0.23084934 -0.005462557543069124 0.9999624490737915 -0.006724642589688301 255.0 38.0 1.0 1.0
-0.90438014 -1.0446036 0.26395807 0.010819281451404095 0.9987198710441589 -0.04941147565841675 255.0 39.0 1.0 1.0
-0.88575679 -1.0450395 0.26170507 0.010819281451404095 0.9987198710441589 -0.04941147565841675 255.0 39.0 1.0 1.0
-0.89227599 -1.0299258 0.2971631 0.004246136173605919 0.998784065246582 -0.049115538597106934 255.0 40.0 1.0 1.0
-0.88901579 -1.0481693 0.2997064 0.015379191376268864 0.9986749291419983 -0.04911017045378685 255.0 40.0 1.0 1.0
-0.89015412 -1.0260551 0.33357969 -9.975719876820222e-05 0.9991918802261353 -0.04019315913319588 255.0 41.0 1.0 1.0
-0.88437933 -1.0412571 0.33547613 0.017308233305811882 0.999042272567749 -0.040187135338783264 255.0 41.0 1.0 1.0
-0.8747533 -1.0069119 0.36459199 -9.977351146517321e-05 0.9993553161621094 -0.03590208292007446 255.0 42.0 1.0 1.0
-0.87665164 -1.0307289 0.36984706 0.013716188259422779 0.9984579086303711 -0.05379211902618408 255.0 42.0 1.0 1.0
-0.87151045 -1.0014393 0.40089789 -0.01802072860300541 0.9983896613121033 -0.0537884421646595 255.0 43.0 1.0 1.0
-0.88332105 -1.0367612 0.41127703 -0.01173139177262783 0.9984522461891174 -0.054364535957574844 255.0 43.0 1.0 1.0
-0.88507181 -1.0152546 0.44595736 -0.01173139177262783 0.9984522461891174 -0.054364535957574844 255.0 44.0 1.0 1.0
-0.85958278 -1.0071522 0.4384208 -0.01173139177262783 0.9984522461891174 -0.054364535957574844 255.0 44.0 1.0 1.0
-0.8579917 -0.9824928 0.47097474 -0.005469692870974541 0.9990873336791992 -0.04236103966832161 255.0 45.0 1.0 1.0
-0.85742635 -1.0028803 0.47639179 -0.016885798424482346 0.9991504549980164 -0.03759271278977394 255.0 45.0 1.0 1.0
-0.87008017 -0.9942553 0.51722866 -0.016858220100402832 0.9975185990333557 -0.06835523247718811 255.0 46.0 1.0 1.0
-0.85475868 -0.99767143 0.51431048 0.010515240952372551 0.9991012215614319 -0.04106348007917404 255.0 46.0 1.0 1.0
-0.85894388 -0.97983366 0.55135131 -0.003978918306529522 0.9978349804878235 -0.06564615666866302 255.0 47.0 1.0 1.0
-0.8366217 -0.97481251 0.5435636 0.012171797454357147 0.9986975789070129 -0.04954876750707626 255.0 47.0 1.0 1.0
-0.81274146 -1.4120723 0.74363452 0.018217409029603004 0.9982038736343384 -0.05707226321101189 255.0 48.0 1.0 1.0
-0.82286257 -1.4649472 0.76684636 0.012249503284692764 0.9979370832443237 -0.06302005052566528 255.0 48.0 1.0 1.0
-0.81138593 -1.413221 0.79911929 0.008062188513576984 0.9973288178443909 -0.07259631901979446 255.0 49.0 1.0 1.0
-0.80355436 -1.4341949 0.80614358 0.02690955437719822 0.9970000982284546 -0.07257238030433655 255.0 49.0 1.0 1.0
-0.80872488 -1.4126685 0.85572535 0.0015794839709997177 0.9974659085273743 -0.07112837582826614 255.0 50.0 1.0 1.0
-0.80596846 -1.442721 0.86872786 0.03033626079559326 0.9979099631309509 -0.05705631151795387 255.0 50.0 1.0 1.0
-0.79605192 -1.3951492 0.90367788 0.0079262126237154 0.9980970025062561 -0.061149921268224716 255.0 51.0 1.0 1.0
-0.7966584 -1.4308484 0.92129898 -0.0037907524965703487 0.9977691173553467 -0.06665032356977463 255.0 51.0 1.0 1.0
-0.78764665 -1.3850091 0.95785534 0.008150948211550713 0.99812251329422 -0.06070242077112198 255.0 52.0 1.0 1.0
-0.77974296 -1.4051967 0.96607882 -0.0021669797133654356 0.9963919520378113 -0.08484305441379547 255.0 52.0 1.0 1.0
-0.78575319 -1.3879756 1.023481 -0.004161966498941183 0.9998389482498169 -0.017459124326705933 255.0 53.0 1.0 1.0
-0.77767545 -1.4079411 1.032102 0.002399684861302376 0.9999377131462097 -0.010898785665631294 255.0 53.0 1.0 1.0
-0.77226728 -1.3709649 1.0775965 -0.003558772848919034 0.9977377653121948 -0.06713156402111053 255.0 54.0 1.0 1.0
-0.77057952 -1.4021449 1.0956496 0.011276266537606716 0.9978741407394409 -0.06418788433074951 255.0 54.0 1.0 1.0
-0.76238859 -1.3602051 1.1393063 0.0010990367736667395 0.9985377788543701 -0.05404584854841232 255.0 55.0 1.0 1.0
-0.76514673 -1.3993193 1.1652308 0.001685194787569344 0.9985995888710022 -0.05287701636552811 255.0 55.0 1.0 1.0
-0.75186843 -1.3498431 1.2046193 0.013153382577002048 0.999272882938385 -0.0357866995036602 255.0 56.0 1.0 1.0
-0.74973488 -1.37985 1.224267 0.009027726016938686 0.9989115595817566 -0.045762307941913605 253.0 56.0 1.0 1.0
-0.74963176 -1.3554082 1.289239 0.0012367513263598084 0.9993621706962585 -0.03569001331925392 255.0 57.0 1.0 1.0
-0.74122345 -1.3740374 1.2994554 -0.002122387522831559 0.9988139867782593 -0.04864226654171944 247.0 57.0 1.0 1.0
-0.74207449 -1.3513495 1.3712529 -0.012792319059371948 0.9981152415275574 -0.060020338743925095 255.0 58.0 1.0 1.0
-0.73633999 -1.3748882 1.3871803 0.002579813590273261 0.9986248016357422 -0.05236165225505829 255.0 58.0 1.0 1.0
-0.73089582 -1.3428105 1.4561492 0.006131203845143318 0.9989277720451355 -0.04588794335722923 255.0 59.0 1.0 1.0
-0.72493225 -1.3657758 1.4726791 0.006133464630693197 0.9992961287498474 -0.03701070323586464 250.0 59.0 1.0 1.0
-0.71187824 -1.322332 1.5348932 0.0384431928396225 0.9978903532028198 -0.05231517180800438 247.0 60.0 1.0 1.0
-0.72010177 -1.3718704 1.5834574 0.026221688836812973 0.9967164993286133 -0.07660623639822006 255.0 60.0 1.0 1.0
-0.70211172 -1.3209331 1.6449313 0.0026678843423724174 0.9974305629730225 -0.07159007340669632 255.0 61.0 1.0 1.0
-0.69937742 -1.3497601 1.6715386 0.0026735186111181974 0.9995369911193848 -0.030311252921819687 255.0 61.0 1.0 1.0
-0.68756241 -1.3119931 1.7588435 0.004406716208904982 0.9958911538124084 -0.0904514491558075 255.0 62.0 1.0 1.0
-0.68432689 -1.3398162 1.7863542 -0.15629878640174866 0.9126446843147278 -0.3776908218860626 255.0 62.0 1.0 1.0
-0.64646953 -1.2556827 1.8197808 0.20953302085399628 0.4707707166671753 -0.8570126891136169 255.0 63.0 1.0 1.0
-0.62665582 -1.2492565 1.8008182 0.20953302085399628 0.4707707166671753 -0.8570126891136169 255.0 63.0 1.0 1.0
-0.3729791 -0.3759748 -0.6962586 0.08934285491704941 0.8219373226165771 0.5625271797180176 255.0 0.0 1.0 1.0
-0.37577486 -0.38681811 -0.70898616 0.0759289413690567 0.8716345429420471 0.4842395782470703 247.0 0.0 1.0 1.0
-0.41129225 -0.4203099 -0.71108794 0.1519179493188858 0.195516899228096 0.9688622355461121 253.0 1.0 1.0 1.0
-0.4015651 -0.41906944 -0.70184976 0.1519179493188858 0.195516899228096 0.9688622355461121 250.0 1.0 1.0 1.0
-0.4349193 -0.44932303 -0.70010757 0.1497332900762558 -0.06553307920694351 0.9865522980690002 250.0 2.0 1.0 1.0
-0.43752456 -0.46159682 -0.71203482 0.1497332900762558 -0.06553307920694351 0.9865522980690002 253.0 2.0 1.0 1.0
-0.46953729 -0.4898822 -0.70526004 0.13927814364433289 -5.0170150643680245e-05 0.9902532696723938 247.0 3.0 1.0 1.0
-0.464376 -0.49477455 -0.70526314 0.13927814364433289 -5.0170150643680245e-05 0.9902532696723938 250.0 3.0 1.0 1.0
-0.50631511 -0.53235471 -0.71140498 0.08978555351495743 0.07784540206193924 0.9929142594337463 253.0 4.0 1.0 1.0
-0.49482715 -0.53131819 -0.70306629 0.08978555351495743 0.07784540206193924 0.9929142594337463 244.0 4.0 1.0 1.0
-0.52691209 -0.55812079 -0.69380236 0.12446630746126175 0.0570329986512661 0.9905834197998047 241.0 5.0 1.0 1.0
-0.53514326 -0.57886904 -0.71256948 0.1242937371134758 0.07755497097969055 0.9892099499702454 255.0 5.0 1.0 1.0
-0.56572217 -0.60303533 -0.69885027 0.14246800541877747 0.056893639266490936 0.9881628751754761 250.0 6.0 1.0 1.0
-0.56350648 -0.6134299 -0.70401508 0.14246800541877747 0.056893639266490936 0.9881628751754761 255.0 6.0 1.0 1.0
-0.61559427 -0.65966868 -0.71399379 0.1482708603143692 0.047450095415115356 0.9878078103065491 255.0 7.0 1.0 1.0
-0.60653001 -0.66376513 -0.71151727 0.1482708603143692 0.047450095415115356 0.9878078103065491 255.0 7.0 1.0 1.0
-0.65082055 -0.70062029 -0.7092827 0.10530222952365875 0.01799684949219227 0.9942774176597595 255.0 8.0 1.0 1.0
-0.64344263 -0.70739931 -0.70928723 0.10530222952365875 0.01799684949219227 0.9942774176597595 255.0 8.0 1.0 1.0
-0.69480264 -0.75140053 -0.71176755 -0.1706915646791458 0.09383995085954666 0.9808458685874939 255.0 9.0 1.0 1.0
-0.68027556 -0.75133359 -0.70492417 -0.17169134318828583 0.09050197154283524 0.9809849262237549 255.0 9.0 1.0 1.0
-0.70092738 -0.76044655 -0.67422849 -0.07391420006752014 0.015406902879476547 0.9971455931663513 151.0 10.0 1.0 1.0
-0.78275377 -0.86725664 -0.76157075 -0.07391420006752014 0.015406902879476547 0.9971455931663513 41.0 10.0 1.0 1.0
-1.017572 -1.1078157 -0.91864276 0.10049634426832199 0.994864821434021 0.012025751173496246 255.0 11.0 1.0 1.0
-1.0264612 -1.141255 -0.93740708 0.008149491623044014 0.9996368288993835 -0.025690704584121704 255.0 11.0 1.0 1.0
-1.0123454 -1.1056471 -0.85654742 0.01860402338206768 0.9995160698890686 -0.02493174746632576 255.0 12.0 1.0 1.0
-1.0030259 -1.1187741 -0.85853851 0.01860402338206768 0.9995160698890686 -0.02493174746632576 255.0 12.0 1.0 1.0
-0.99126393 -1.0853229 -0.78538501 0.012345898896455765 0.9982972145080566 -0.057010918855667114 255.0 13.0 1.0 1.0
-1.0033617 -1.1219424 -0.80423725 -0.0054444484412670135 0.9988256096839905 -0.04814266040921211 255.0 13.0 1.0 1.0
-0.99490154 -1.0916342 -0.73672873 0.010767861269414425 0.9993353486061096 -0.03482770547270775 255.0 14.0 1.0 1.0
-1.0000957 -1.1206889 -0.7492305 -0.0024496554397046566 0.9999616146087646 -0.008400959894061089 255.0 14.0 1.0 1.0
-0.99241793 -1.0912371 -0.68549508 -0.007623990997672081 0.9998124837875366 -0.01779760606586933 255.0 15.0 1.0 1.0
-0.9881686 -1.109699 -0.69055837 0.029326675459742546 0.9962444305419922 -0.08146743476390839 255.0 15.0 1.0 1.0
-0.99594975 -1.6613039 -0.83825338 0.00836158636957407 0.9984641671180725 -0.05476691573858261 255.0 16.0 1.0 1.0
-1.0007555 -1.7096568 -0.85732913 -0.003219867590814829 0.9985278844833374 -0.05414555221796036 255.0 16.0 1.0 1.0
-0.98416352 -1.6378433 -0.76589644 -0.008528624661266804 0.9990355372428894 -0.043071992695331573 255.0 17.0 1.0 1.0
-0.97823071 -1.6672732 -0.77483869 -0.017473625019192696 0.9963767528533936 -0.08323465287685394 255.0 17.0 1.0 1.0
-0.98679185 -1.6377591 -0.70692354 -0.00588476425036788 0.9995445609092712 -0.029598107561469078 255.0 18.0 1.0 1.0
-0.98100126 -1.6674045 -0.71525949 0.012994800694286823 0.9996180534362793 -0.02438949979841709 255.0 18.0 1.0 1.0
-0.97832441 -1.6199473 -0.64258516 -0.0006208151462487876 0.9990676045417786 -0.043168604373931885 255.0 19.0 1.0 1.0
-0.96899968 -1.6431551 -0.64774317 -0.00303995911963284 0.9994001984596252 -0.03449535369873047 255.0 19.0 1.0 1.0
-0.96444196 -1.5938983 -0.57796633 0.005021607503294945 0.9993892908096313 -0.034579385071992874 255.0 20.0 1.0 1.0
-0.96713269 -1.636801 -0.58983278 -0.008386535570025444 0.9998287558555603 -0.016498735174536705 255.0 20.0 1.0 1.0
-0.96136183 -1.585754 -0.52232587 -0.006400857586413622 0.9988123774528503 -0.04830082505941391 255.0 21.0 1.0 1.0
-0.95450723 -1.6123023 -0.52776229 0.023071499541401863 0.9977479577064514 -0.06298215687274933 255.0 21.0 1.0 1.0
-0.95543528 -1.5729529 -0.46639392 0.006437403149902821 0.9992462992668152 -0.03828001767396927 255.0 22.0 1.0 1.0
-0.95671397 -1.6128864 -0.47525284 -0.01501536276191473 0.9994032382965088 -0.031107962131500244 255.0 22.0 1.0 1.0
-0.94219935 -1.5487996 -0.40959179 0.016963694244623184 0.999309241771698 -0.03306443616747856 255.0 23.0 1.0 1.0
-0.94784999 -1.5954796 -0.419305 -0.0005496889934875071 0.999704122543335 -0.024317463859915733 255.0 23.0 1.0 1.0
-0.94001949 -1.5434601 -0.35941023 -0.011381971649825573 0.9995164275169373 -0.028935959562659264 255.0 24.0 1.0 1.0
-0.93583423 -1.5734537 -0.36410698 -0.0066449823789298534 0.999410092830658 -0.03369323909282684 255.0 24.0 1.0 1.0
-0.9394533 -1.5401722 -0.31035221 0.003399929031729698 0.9998472332954407 -0.017147131264209747 255.0 25.0 1.0 1.0
-0.93941033 -1.5770224 -0.3157942 0.0016901129856705666 0.9990217089653015 -0.044190313667058945 255.0 25.0 1.0 1.0
-0.92759913 -1.5190187 -0.25894234 0.0006490147789008915 0.9989469051361084 -0.045875534415245056 255.0 26.0 1.0 1.0
-0.93799901 -1.5728458 -0.26644894 0.0041441419161856174 0.998593807220459 -0.05284994840621948 255.0 26.0 1.0 1.0
-0.93540406 -1.5306523 -0.214237 0.013759060762822628 0.9988144636154175 -0.046695489436388016 255.0 27.0 1.0 1.0
-0.92135137 -1.5437821 -0.21472485 0.013914380222558975 0.9983320832252502 -0.05603129044175148 255.0 27.0 1.0 1.0
-0.91795695 -1.5004091 -0.16432177 -0.009083365090191364 0.9982389807701111 -0.05862056091427803 255.0 28.0 1.0 1.0
-0.93488151 -1.564642 -0.17029929 0.012203135527670383 0.9982057809829712 -0.058618612587451935 255.0 28.0 1.0 1.0
-0.92426562 -1.5101824 -0.11965038 0.001700070803053677 0.9999097585678101 -0.013324908912181854 255.0 29.0 1.0 1.0
-0.91658425 -1.5334883 -0.12074512 0.001700070803053677 0.9999097585678101 -0.013324908912181854 255.0 29.0 1.0 1.0
-0.90936261 -1.4847368 -0.073022909 0.008208390325307846 0.999466598033905 -0.03160786256194115 255.0 30.0 1.0 1.0
-0.91427839 -1.5284803 -0.074720733 -0.0046103051863610744 0.9994897246360779 -0.031608592718839645 255.0 30.0 1.0 1.0
-0.91001916 -1.4858655 -0.028664023 -0.011500973254442215 0.9989858865737915 -0.04353126883506775 255.0 31.0 1.0 1.0
-0.91699135 -1.5330743 -0.029411249 -0.011500973254442215 0.9989858865737915 -0.04353126883506775 255.0 31.0 1.0 1.0
-0.92440701 -1.0280375 0.013044856 -0.012504350394010544 0.9982774257659912 -0.05732221528887749 255.0 32.0 1.0 1.0
-0.91886777 -1.0436759 0.013110822 0.0 0.9985113739967346 -0.05454485863447189 255.0 32.0 1.0 1.0
-0.92156518 -1.024182 0.048140045 0.009211082011461258 0.9984568357467651 -0.05476505681872368 255.0 33.0 1.0 1.0
-0.92135125 -1.0457846 0.048686143 0.009959366172552109 0.9984495639801025 -0.054764654487371445 255.0 33.0 1.0 1.0
-0.91794825 -1.0198284 0.083024606 0.009219990111887455 0.999422550201416 -0.03270552307367325 255.0 34.0 1.0 1.0
-0.90456754 -1.0264018 0.082777813 0.009970762766897678 0.9995920658111572 -0.026763468980789185 255.0 34.0 1.0 1.0
-0.92156041 -1.0238649 0.11872522 0.003321552649140358 0.9989790320396423 -0.045053787529468536 255.0 35.0 1.0 1.0
-0.92131865 -1.0454304 0.12008574 0.003321552649140358 0.9989790320396423 -0.045053787529468536 255.0 35.0 1.0 1.0
-0.9142589 -1.0150652 0.15305372 0.009537683799862862 0.9986932277679443 -0.05020934343338013 255.0 36.0 1.0 1.0
-0.90882736 -1.0305587 0.1539342 0.006517814937978983 0.9988644123077393 -0.04719644784927368 255.0 36.0 1.0 1.0
-0.89309293 -0.99089754 0.18440673 0.0019717225804924965 0.9986410140991211 -0.0520787350833416 255.0 37.0 1.0 1.0
-0.8931452 -1.0120919 0.18658359 0.009532743133604527 0.998175859451294 -0.05961640924215317 255.0 37.0 1.0 1.0
-0.90072733 -0.99833763 0.22114623 0.010827437974512577 0.9994727969169617 -0.030608724802732468 255.0 38.0 1.0 1.0
-0.89282572 -1.0106868 0.22178683 0.011800719425082207 0.9993680715560913 -0.03352877125144005 255.0 38.0 1.0 1.0
-0.88659549 -0.98166639 0.25272667 0.004243767820298672 0.998227059841156 -0.0593695230782032 255.0 39.0 1.0 1.0
-0.87885857 -0.99385399 0.25346875 0.023520994931459427 0.9966320395469666 -0.07855863869190216 255.0 39.0 1.0 1.0
-0.877002 -0.97038829 0.28525814 0.005506603978574276 0.9990324378013611 -0.04363156482577324 255.0 40.0 1.0 1.0
-0.89268547 -1.0088018 0.29375339 0.004246136173605919 0.998784065246582 -0.049115538597106934 255.0 40.0 1.0 1.0
-0.89324397 -0.98699349 0.32691464 -0.0026104841381311417 0.9993537068367004 -0.03585134074091911 255.0 41.0 1.0 1.0
-0.88027036 -0.99340028 0.32595634 -0.001249138731509447 0.9991443157196045 -0.041340626776218414 255.0 41.0 1.0 1.0
-0.87237114 -0.96260566 0.35511759 -0.00535826338455081 0.9991307258605957 -0.04134006425738335 255.0 42.0 1.0 1.0
-0.88016242 -0.99190682 0.36247817 -9.975719876820222e-05 0.9991918802261353 -0.04019315913319588 255.0 42.0 1.0 1.0
-0.88719183 -0.97726381 0.39858732 0.0002367755805607885 0.9993552565574646 -0.03590208292007446 255.0 43.0 1.0 1.0
-0.8794415 -0.98937869 0.39973491 -0.00533986696973443 0.9981029629707336 -0.06133289635181427 255.0 43.0 1.0 1.0
-0.86274451 -0.94869792 0.42462066 -0.005341540556401014 0.9984157681465149 -0.05601247772574425 255.0 44.0 1.0 1.0
-0.86537999 -0.97187787 0.4308891 -0.005465897731482983 0.9983941316604614 -0.05638468265533447 255.0 44.0 1.0 1.0
-0.88349843 -0.96983743 0.4736841 -0.00719410227611661 0.9991479516029358 -0.04063953086733818 255.0 45.0 1.0 1.0
-0.85824955 -0.96220434 0.46554193 -0.005469692870974541 0.9990873336791992 -0.04236103966832161 255.0 45.0 1.0 1.0
-0.86564147 -0.94826597 0.50266886 -0.007188758347183466 0.9984057545661926 -0.0559852160513401 255.0 46.0 1.0 1.0
-0.84075183 -0.94063026 0.49392849 -0.003981960471719503 0.9985978603363037 -0.05278780311346054 255.0 46.0 1.0 1.0
-0.86191922 -0.94256014 0.54045504 -0.015063941478729248 0.9983947277069092 -0.05460018664598465 255.0 47.0 1.0 1.0
-0.86673796 -0.96802169 0.54978615 -0.015063941478729248 0.9983947277069092 -0.05460018664598465 255.0 47.0 1.0 1.0
-0.8214922 -1.360433 0.72539365 0.01946266181766987 0.9987122416496277 -0.046851471066474915 255.0 48.0 1.0 1.0
-0.82198215 -1.3940595 0.7386533 0.013854597695171833 0.9985131025314331 -0.05272148922085762 255.0 48.0 1.0 1.0
-0.82046771 -1.3620332 0.77977532 0.0063113002106547356 0.998217761516571 -0.0593407116830349 255.0 49.0 1.0 1.0
-0.81707764 -1.3891466 0.79031891 0.013842864893376827 0.9976674914360046 -0.06684303283691406 255.0 49.0 1.0 1.0
-0.80535585 -1.3407402 0.82226491 0.004497825633734465 0.9978541731834412 -0.06532060354948044 255.0 50.0 1.0 1.0
-0.81097424 -1.3827204 0.84270579 0.0015794839709997177 0.9974659085273743 -0.07112837582826614 255.0 50.0 1.0 1.0
-0.80365342 -1.3422303 0.8801735 0.007918091490864754 0.9970743656158447 -0.07602623850107193 255.0 51.0 1.0 1.0
-0.79834193 -1.3656447 0.88995856 0.007918091490864754 0.9970743656158447 -0.07602623850107193 255.0 51.0 1.0 1.0
-0.78841263 -1.3210561 0.92491919 0.007798066828399897 0.9981302618980408 -0.06062361225485802 255.0 52.0 1.0 1.0
-0.80215687 -1.3766637 0.95785093 0.00793495774269104 0.9981374144554138 -0.06048721447587013 255.0 52.0 1.0 1.0
-0.7906211 -1.3306428 0.99327195 -0.001297743758186698 0.9981679916381836 -0.06048964336514473 255.0 53.0 1.0 1.0
-0.78169888 -1.34761 0.99973547 0.007930193096399307 0.9975380301475525 -0.06967858225107193 255.0 53.0 1.0 1.0
-0.78406525 -1.3260292 1.0550219 0.00942186452448368 0.9996695518493652 -0.023915916681289673 255.0 54.0 1.0 1.0
-0.77342254 -1.3399085 1.0595269 0.009407290257513523 0.9981232285499573 -0.06051166355609894 255.0 54.0 1.0 1.0
-0.77274311 -1.3132646 1.1133767 -0.003990853670984507 0.9977216124534607 -0.06734654307365417 255.0 55.0 1.0 1.0
-0.76537198 -1.3325146 1.122797 0.003644729033112526 0.9985997676849365 -0.05277638882398605 255.0 55.0 1.0 1.0
-0.76091409 -1.3010653 1.1751364 0.0041976198554039 0.999459445476532 -0.03260624781250954 253.0 56.0 1.0 1.0
-0.75662321 -1.32543 1.1898701 0.0012739879311993718 0.9993679523468018 -0.035526517778635025 253.0 56.0 1.0 1.0
-0.74855912 -1.2888331 1.2406608 -0.0005247470689937472 0.9994181990623474 -0.03410479798913002 253.0 57.0 1.0 1.0
-0.74714506 -1.3180304 1.2611066 -0.0017235174309462309 0.9992515444755554 -0.03864619508385658 255.0 57.0 1.0 1.0
-0.73889512 -1.2810706 1.3154715 0.008984952233731747 0.9992320537567139 -0.03813755884766579 247.0 58.0 1.0 1.0
-0.73862958 -1.3122141 1.3393699 0.008984952233731747 0.9992320537567139 -0.03813755884766579 250.0 58.0 1.0 1.0
-0.73878223 -1.2919399 1.4175583 0.002423770958557725 0.9994246363639832 -0.033830780535936356 255.0 59.0 1.0 1.0
-0.73367131 -1.3148154 1.4340893 -0.006950293201953173 0.998237669467926 -0.058933500200510025 255.0 59.0 1.0 1.0
-0.720186 -1.2729763 1.4948963 -0.004693693481385708 0.9986833930015564 -0.05108238384127617 250.0 60.0 1.0 1.0
-0.71356374 -1.2927278 1.5091724 -0.003316018497571349 0.9973151087760925 -0.07315360009670258 244.0 60.0 1.0 1.0
-0.71130067 -1.2729757 1.603531 -0.0170645322650671 0.9970920085906982 -0.07427169382572174 255.0 61.0 1.0 1.0
-0.70822811 -1.2992975 1.6271815 -0.004049843642860651 0.9999285340309143 -0.011249584145843983 255.0 61.0 1.0 1.0
-0.69380063 -1.2588644 1.7068638 -0.01230156421661377 0.9981128573417664 -0.06016144901514053 255.0 62.0 1.0 1.0
