ply
format ascii 1.0
element vertex 417
property float x
property float y
property float z
property float nx
property float ny
property float nz
property float intensity
property float ring
property float return
property float label
end_header
-0.93435764 -0.49782684 -0.019032955 0.018719330430030823 0.995746374130249 0.09021515399217606 255.0 31.0 1.0 1.0
-0.95124286 -0.29031289 0.0079220114 0.01865951158106327 0.9992166757583618 -0.03489799052476883 255.0 32.0 1.0 1.0
-0.97486401 -0.30869299 0.0081342831 0.01865951158106327 0.9992166757583618 -0.03489799052476883 255.0 32.0 1.0 1.0
-0.93170398 -0.28405237 0.032609127 0.0442243255674839 0.9971922636032104 -0.060429904609918594 255.0 33.0 1.0 1.0
-0.96682036 -0.30581704 0.033936113 0.021332642063498497 0.9987973570823669 -0.04414667561650276 255.0 33.0 1.0 1.0
-0.94975162 -0.28937635 0.058630999 0.023248804733157158 0.998848021030426 -0.04197734221816063 255.0 34.0 1.0 1.0
-0.94287032 -0.29812571 0.058383323 0.04421753063797951 0.9970390796661377 -0.06291215121746063 255.0 34.0 1.0 1.0
-0.94037193 -0.28656238 0.08330451 0.023257210850715637 0.9992091059684753 -0.03225037083029747 255.0 35.0 1.0 1.0
-0.97534877 -0.30837739 0.08666756 0.023257210850715637 0.9992091059684753 -0.03225037083029747 255.0 35.0 1.0 1.0
-0.92670006 -0.28209248 0.10712903 0.051561139523983 0.9968336224555969 -0.06053290143609047 255.0 36.0 1.0 1.0
-0.95025539 -0.30014583 0.11019233 0.051561139523983 0.9968336224555969 -0.06053290143609047 255.0 36.0 1.0 1.0
-0.95418561 -0.29008448 0.13641453 0.045959219336509705 0.9956863522529602 -0.08059990406036377 255.0 37.0 1.0 1.0
-0.92841959 -0.29295537 0.1331532 0.045959219336509705 0.9956863522529602 -0.08059990406036377 255.0 37.0 1.0 1.0
-0.9166528 -0.2782343 0.1561695 0.034009356051683426 0.9992976784706116 -0.01573946699500084 255.0 38.0 1.0 1.0
-0.94760513 -0.29846492 0.16194408 0.034009356051683426 0.9992976784706116 -0.01573946699500084 255.0 38.0 1.0 1.0
-0.93521184 -0.28333485 0.18527916 0.04448918625712395 0.997889518737793 -0.047300565987825394 255.0 39.0 1.0 1.0
-0.92845404 -0.2919578 0.18452306 0.04448918625712395 0.997889518737793 -0.047300565987825394 255.0 39.0 1.0 1.0
-0.94910508 -0.28719297 0.21480784 0.04443937912583351 0.9967723488807678 -0.06685811281204224 255.0 40.0 1.0 1.0
-0.93486291 -0.29363596 0.21225812 0.04443937912583351 0.9967723488807678 -0.06685811281204224 255.0 40.0 1.0 1.0
-0.93993467 -0.28356716 0.2396784 0.027657896280288696 0.998488187789917 -0.047503020614385605 255.0 41.0 1.0 1.0
-0.94805586 -0.29688278 0.24250925 0.027679499238729477 0.9992679953575134 -0.026406362652778625 255.0 41.0 1.0 1.0
-0.93748564 -0.28232828 0.26619455 0.024336300790309906 0.9994377493858337 -0.023062951862812042 255.0 42.0 1.0 1.0
-0.92711794 -0.28985614 0.26408628 0.024336300790309906 0.9994377493858337 -0.023062951862812042 255.0 42.0 1.0 1.0
-0.94166553 -0.28271732 0.29545796 0.030087094753980637 0.9965341091156006 -0.07755457609891891 255.0 43.0 1.0 1.0
-0.94232488 -0.29371762 0.29659596 0.030087094753980637 0.9965341091156006 -0.07755457609891891 255.0 43.0 1.0 1.0
-0.91951287 -0.27525702 0.31640086 0.026745811104774475 0.9973592758178711 -0.06752019375562668 255.0 44.0 1.0 1.0
-0.93111169 -0.28938115 0.32139257 0.026745811104774475 0.9973592758178711 -0.06752019375562668 255.0 44.0 1.0 1.0
-0.90769899 -0.2709083 0.34061924 0.029957586899399757 0.9986187219619751 -0.04316555708646774 255.0 45.0 1.0 1.0
-0.90482533 -0.28041828 0.34060782 0.016866575926542282 0.9989967942237854 -0.04148338735103607 255.0 45.0 1.0 1.0
-0.92754221 -0.27577651 0.37737712 0.04325639456510544 0.9966992735862732 -0.06869788467884064 255.0 46.0 1.0 1.0
-0.91392827 -0.28221017 0.37301046 0.04325639456510544 0.9966992735862732 -0.06869788467884064 255.0 46.0 1.0 1.0
-0.89997828 -0.26663125 0.39575899 0.0431976355612278 0.9953454732894897 -0.08614751696586609 255.0 47.0 1.0 1.0
-0.91477579 -0.28145665 0.40350875 0.0431976355612278 0.9953454732894897 -0.08614751696586609 255.0 47.0 1.0 1.0
-0.89436203 -0.47201183 0.45990726 0.016865486279129982 0.9972015619277954 -0.0728321373462677 250.0 48.0 1.0 1.0
-0.89259011 -0.48310015 0.46154961 0.0028941798955202103 0.9980731010437012 -0.061980895698070526 253.0 48.0 1.0 1.0
-0.90130126 -0.47691256 0.4983325 0.016452210023999214 0.9956167340278625 -0.09206913411617279 255.0 49.0 1.0 1.0
-0.88678652 -0.48121682 0.49305552 0.016452210023999214 0.9956167340278625 -0.09206913411617279 250.0 49.0 1.0 1.0
-0.88171577 -0.46801376 0.52307034 0.016462896019220352 0.9962635636329651 -0.08478176593780518 247.0 50.0 1.0 1.0
-0.87989694 -0.47893095 0.52491325 0.016462896019220352 0.9962635636329651 -0.08478176593780518 244.0 50.0 1.0 1.0
-0.88295466 -0.4702982 0.56105947 0.021620767191052437 0.9951955080032349 -0.0954899713397026 241.0 51.0 1.0 1.0
-0.86267024 -0.4712005 0.55127186 0.013622402213513851 0.9961680173873901 -0.0863925963640213 232.0 51.0 1.0 1.0
-0.85552472 -0.45732719 0.58146054 0.04156523197889328 0.9926022887229919 -0.11407500505447388 232.0 52.0 1.0 1.0
-0.87480164 -0.47943848 0.59788746 0.04156523197889328 0.9926022887229919 -0.11407500505447388 241.0 52.0 1.0 1.0
-0.86601865 -0.46510705 0.62898725 0.04156523197889328 0.9926022887229919 -0.11407500505447388 235.0 53.0 1.0 1.0
-0.84634203 -0.46606702 0.61820406 0.046917397528886795 0.9929582476615906 -0.10877865552902222 223.0 53.0 1.0 1.0
-0.84804368 -0.4578363 0.65817291 0.047106705605983734 0.9969647526741028 -0.06198643893003464 226.0 54.0 1.0 1.0
-0.85768789 -0.47468951 0.66943234 0.030838746577501297 0.9950730204582214 -0.09422597289085388 232.0 54.0 1.0 1.0
-0.84890807 -0.46065769 0.70379061 0.03374665975570679 0.9971964955329895 -0.06678705662488937 235.0 55.0 1.0 1.0
-0.84971201 -0.47267863 0.70848697 0.03374665975570679 0.9971964955329895 -0.06678705662488937 232.0 55.0 1.0 1.0
-0.83630842 -0.45674723 0.74096018 0.04030313715338707 0.9945388436317444 -0.0962713286280632 226.0 56.0 1.0 1.0
-0.83425617 -0.46703985 0.74340236 0.033177752047777176 0.994093120098114 -0.10333549231290817 217.0 56.0 1.0 1.0
-0.83810568 -0.46083409 0.79405826 0.021970663219690323 0.9986632466316223 -0.04678815230727196 229.0 57.0 1.0 1.0
-0.83056718 -0.46809992 0.79149336 0.021970663219690323 0.9986632466316223 -0.04678815230727196 226.0 57.0 1.0 1.0
-0.83172762 -0.46082103 0.84359616 0.012018045410513878 0.9994025230407715 -0.032405585050582886 223.0 58.0 1.0 1.0
-0.82166344 -0.46658042 0.83827865 0.012018045410513878 0.9994025230407715 -0.032405585050582886 220.0 58.0 1.0 1.0
-0.82213378 -0.45955142 0.89483529 0.01651592180132866 0.9989142417907715 -0.04356035217642784 232.0 59.0 1.0 1.0
-0.83997655 -0.48109788 0.91960561 0.022658593952655792 0.9989230036735535 -0.040489472448825836 241.0 59.0 1.0 1.0
-0.83353096 -0.47096089 0.97603124 0.017036350443959236 0.9992048740386963 -0.03604694828391075 250.0 60.0 1.0 1.0
-0.81886214 -0.47408658 0.96460348 0.017036350443959236 0.9992048740386963 -0.03604694828391075 241.0 60.0 1.0 1.0
-0.81833243 -0.46798393 1.0339991 0.012961506843566895 0.9989451169967651 -0.044054239988327026 250.0 61.0 1.0 1.0
-0.82505262 -0.48334602 1.0487599 0.01295736338943243 0.9986258149147034 -0.05078038573265076 253.0 61.0 1.0 1.0
-0.81883073 -0.47484767 1.1211108 0.010583672672510147 0.9995895028114319 -0.02662566676735878 255.0 62.0 1.0 1.0
-0.81827962 -0.48604929 1.1272093 0.010583672672510147 0.9995895028114319 -0.02662566676735878 255.0 62.0 1.0 1.0
-0.81851524 -0.4826518 1.2211531 0.02977677620947361 0.9986437559127808 -0.0427083782851696 255.0 63.0 1.0 1.0
-0.80711985 -0.4874194 1.211675 0.02977677620947361 0.9986437559127808 -0.0427083782851696 255.0 63.0 1.0 1.0
-0.47992375 -0.1105385 -0.64956057 0.32434967160224915 -0.004397766198962927 0.9459270238876343 247.0 0.0 1.0 1.0
-0.47403136 -0.11444842 -0.64319879 0.32434967160224915 -0.004397766198962927 0.9459270238876343 247.0 0.0 1.0 1.0
-0.52675372 -0.12505633 -0.65671808 0.3363293409347534 0.01929691806435585 0.9415466785430908 250.0 1.0 1.0 1.0
-0.5204674 -0.12936242 -0.65055865 0.27387773990631104 0.02206742763519287 0.9615112543106079 244.0 1.0 1.0 1.0
-0.56287712 -0.13683222 -0.6505447 0.2564530670642853 0.09983062744140625 0.9613874554634094 250.0 2.0 1.0 1.0
-0.55108237 -0.14013089 -0.63861614 0.27239999175071716 0.10603835433721542 0.9563232660293579 235.0 2.0 1.0 1.0
-0.59592783 -0.14794143 -0.6401636 0.24046708643436432 -0.07134665548801422 0.968031644821167 235.0 3.0 1.0 1.0
-0.5862928 -0.15211706 -0.63152087 0.1949116587638855 0.022235972806811333 0.9805687665939331 235.0 3.0 1.0 1.0
-0.63082498 -0.15916088 -0.63195872 0.23734444379806519 0.0746036097407341 0.9685565829277039 241.0 4.0 1.0 1.0
-0.63746303 -0.1679523 -0.64031762 0.23734444379806519 0.0746036097407341 0.9685565829277039 244.0 4.0 1.0 1.0
-0.66234273 -0.16968754 -0.61997777 0.18744046986103058 0.023004621267318726 0.9820065498352051 235.0 5.0 1.0 1.0
-0.6633985 -0.17739031 -0.62266958 0.18744046986103058 0.023004621267318726 0.9820065498352051 238.0 5.0 1.0 1.0
-0.72572106 -0.18828572 -0.63563937 0.15444645285606384 0.00610082782804966 0.9879822731018066 244.0 6.0 1.0 1.0
-0.71781379 -0.19430436 -0.63048095 0.13723601400852203 0.006116495002061129 0.9905194640159607 241.0 6.0 1.0 1.0
-0.7567758 -0.19845439 -0.62106258 0.13279837369918823 0.0678085908293724 0.9888207912445068 241.0 7.0 1.0 1.0
-0.75163287 -0.20556119 -0.61858785 0.13688291609287262 0.07194900512695312 0.9879708886146545 241.0 7.0 1.0 1.0
-0.81504548 -0.21566191 -0.62732536 0.13306692242622375 0.023829687386751175 0.9908204674720764 255.0 8.0 1.0 1.0
-0.8127445 -0.22420038 -0.62733537 0.13306692242622375 0.023829687386751175 0.9908204674720764 255.0 8.0 1.0 1.0
-0.86751252 -0.23161811 -0.62648243 0.16162964701652527 0.013961213640868664 0.9867526888847351 255.0 9.0 1.0 1.0
-0.85871482 -0.2389541 -0.6219207 0.14941315352916718 0.013988424092531204 0.9886758327484131 255.0 9.0 1.0 1.0
-0.90427363 -0.2429484 -0.61240971 0.14034971594810486 -0.0584624782204628 0.9883744716644287 255.0 10.0 1.0 1.0
-0.90813518 -0.25421613 -0.61679482 0.14034971594810486 -0.0584624782204628 0.9883744716644287 255.0 10.0 1.0 1.0
-0.97681397 -0.26420999 -0.62011254 0.13166828453540802 0.20806558430194855 0.9692121744155884 255.0 11.0 1.0 1.0
-0.98385167 -0.27720276 -0.62638783 0.09776535630226135 0.20888742804527283 0.9730405807495117 255.0 11.0 1.0 1.0
-1.0336586 -0.28110796 -0.61418605 0.08717619627714157 0.9921894073486328 0.0892217680811882 255.0 12.0 1.0 1.0
-1.0206375 -0.28910592 -0.60823643 0.04464993625879288 0.9949878454208374 0.0894734114408493 255.0 12.0 1.0 1.0
-1.0190189 -0.27872151 -0.56652927 0.03643917292356491 0.9987846612930298 0.0331847183406353 255.0 13.0 1.0 1.0
-1.0058694 -0.28650761 -0.56087714 0.03643917292356491 0.9987846612930298 0.0331847183406353 255.0 13.0 1.0 1.0
-0.99220604 -0.27258387 -0.51521373 0.009058012627065182 0.9994624257087708 -0.031507935374975204 255.0 14.0 1.0 1.0
-1.0065057 -0.28787267 -0.5241698 0.009058012627065182 0.9994624257087708 -0.031507935374975204 255.0 14.0 1.0 1.0
-1.0122466 -0.27924633 -0.48993191 0.021156318485736847 0.9991153478622437 -0.036343079060316086 255.0 15.0 1.0 1.0
-1.0057844 -0.2888501 -0.48825523 0.019021466374397278 0.9984945058822632 -0.05144764110445976 255.0 15.0 1.0 1.0
-1.0046706 -0.5068934 -0.48903716 -0.0068140109069645405 0.9984292387962341 -0.05561152473092079 255.0 16.0 1.0 1.0
-1.0156146 -0.52581435 -0.49701458 0.010033302009105682 0.9984021186828613 -0.05561002343893051 255.0 16.0 1.0 1.0
-1.0067418 -0.50665784 -0.45375094 0.00031284341821447015 0.9997413754463196 -0.022743741050362587 255.0 17.0 1.0 1.0
-1.0178833 -0.52568066 -0.46122658 0.00031284341821447015 0.9997413754463196 -0.022743741050362587 255.0 17.0 1.0 1.0
-0.98441291 -0.4939957 -0.40913275 0.009452525526285172 0.9993930459022522 -0.03352958336472511 255.0 18.0 1.0 1.0
-0.97919023 -0.50429356 -0.40914598 -0.0035239846911281347 0.9997491240501404 -0.022119682282209396 255.0 18.0 1.0 1.0
-0.99097013 -0.49601853 -0.3781786 -0.002710819710046053 0.9995607137680054 -0.0295121967792511 255.0 19.0 1.0 1.0
-0.99583662 -0.51156098 -0.38206348 -0.002710819710046053 0.9995607137680054 -0.0295121967792511 255.0 19.0 1.0 1.0
-0.97949106 -0.48926488 -0.34151912 -0.001036192406900227 0.9991049766540527 -0.04228738695383072 255.0 20.0 1.0 1.0
-0.98792261 -0.50646102 -0.34629139 -0.001036192406900227 0.9991049766540527 -0.04228738695383072 255.0 20.0 1.0 1.0
-0.9875896 -0.49225929 -0.3126328 -0.0010368216317147017 0.9997116327285767 -0.023992877453565598 255.0 21.0 1.0 1.0
-0.97552842 -0.49909416 -0.31046784 -0.0010368216317147017 0.9997116327285767 -0.023992877453565598 255.0 21.0 1.0 1.0
-0.98461515 -0.48974875 -0.28047201 0.0019613204058259726 0.9994077682495117 -0.03435513749718666 255.0 22.0 1.0 1.0
-1.0001675 -0.5105952 -0.28640953 0.0019613204058259726 0.9994077682495117 -0.03435513749718666 255.0 22.0 1.0 1.0
-0.97365481 -0.48350626 -0.24735843 0.006331450771540403 0.9990513324737549 -0.04308454692363739 255.0 23.0 1.0 1.0
-0.97202224 -0.49545872 -0.24825789 0.006331450771540403 0.9990513324737549 -0.04308454692363739 255.0 23.0 1.0 1.0
-0.98633242 -0.48917335 -0.22069994 0.0022160247899591923 0.9996518492698669 -0.026289910078048706 255.0 24.0 1.0 1.0
-0.97416693 -0.4959431 -0.21914274 0.0022160247899591923 0.9996518492698669 -0.026289910078048706 255.0 24.0 1.0 1.0
-0.9773193 -0.48390603 -0.18931082 0.016636531800031662 0.9984430074691772 -0.05324225872755051 255.0 25.0 1.0 1.0
-0.9792375 -0.49769226 -0.19069041 0.002755645662546158 0.9990718960762024 -0.04298567399382591 255.0 25.0 1.0 1.0
-0.9745205 -0.48192638 -0.15984981 0.007602709345519543 0.9937850832939148 -0.11105523258447647 255.0 26.0 1.0 1.0
-0.96236479 -0.48854929 -0.15870072 0.002738726558163762 0.9929377436637878 -0.11860476434230804 255.0 26.0 1.0 1.0
-0.97802204 -0.48326284 -0.13195345 0.0005770817515440285 0.993497908115387 -0.11384926736354828 255.0 27.0 1.0 1.0
-0.99063617 -0.50245214 -0.13436472 -0.02032661996781826 0.990146815776825 -0.13855016231536865 255.0 27.0 1.0 1.0
-0.96668363 -0.47708535 -0.1023462 0.016681231558322906 0.988484799861908 -0.15039779245853424 255.0 28.0 1.0 1.0
-0.96519738 -0.48899454 -0.10273661 0.016681231558322906 0.988484799861908 -0.15039779245853424 255.0 28.0 1.0 1.0
-0.94372022 -0.46562254 -0.072702043 -0.1339522898197174 0.9874707460403442 -0.08341626822948456 247.0 29.0 1.0 1.0
-0.96017629 -0.48628449 -0.074365772 0.01872928999364376 0.9962761998176575 -0.08416010439395905 255.0 29.0 1.0 1.0
-0.91652989 -0.45189175 -0.044395398 -0.08832638710737228 0.9902080297470093 -0.10810445994138718 232.0 30.0 1.0 1.0
-0.96528006 -0.48847196 -0.047005761 0.01872928999364376 0.9962761998176575 -0.08416010439395905 247.0 30.0 1.0 1.0
-0.93876994 -0.46284929 -0.018779192 -0.08831687271595001 0.9901013970375061 0.1090841218829155 255.0 31.0 1.0 1.0
-0.94816434 -0.47987595 -0.019077644 -0.0007701992872171104 0.9939851760864258 0.10951201617717743 255.0 31.0 1.0 1.0
-0.9301669 -0.26267862 0.0077198856 0.021006939932703972 0.9979485869407654 -0.06047574058175087 255.0 32.0 1.0 1.0
-0.96576661 -0.28364441 0.0080296472 0.0442243255674839 0.9971922636032104 -0.060429904609918594 255.0 32.0 1.0 1.0
-0.9567014 -0.26980209 0.033301841 0.021006939932703972 0.9979485869407654 -0.06047574058175087 255.0 33.0 1.0 1.0
-0.97302085 -0.28542575 0.033959799 0.0442243255674839 0.9971922636032104 -0.060429904609918594 255.0 33.0 1.0 1.0
-0.95176619 -0.26826739 0.058418244 0.03305268660187721 0.9985722303390503 -0.041965752840042114 255.0 34.0 1.0 1.0
-0.91824865 -0.26929057 0.056520198 0.023248804733157158 0.998848021030426 -0.04197734221816063 255.0 34.0 1.0 1.0
-0.9384985 -0.26457584 0.082652099 0.038599856197834015 0.9974175095558167 -0.06056835874915123 255.0 35.0 1.0 1.0
-0.93951249 -0.27552435 0.082978047 0.051561139523983 0.9968336224555969 -0.06053290143609047 255.0 35.0 1.0 1.0
-0.94772434 -0.26683572 0.10890923 0.038599856197834015 0.9974175095558167 -0.06056835874915123 255.0 36.0 1.0 1.0
-0.92962044 -0.27231398 0.10714 0.051561139523983 0.9968336224555969 -0.06053290143609047 255.0 36.0 1.0 1.0
-0.92570812 -0.26034874 0.13156252 0.0339798629283905 0.9984311461448669 -0.044503919780254364 255.0 37.0 1.0 1.0
-0.94577271 -0.2766932 0.13480088 0.0339798629283905 0.9984311461448669 -0.044503919780254364 255.0 37.0 1.0 1.0
-0.93369138 -0.26208401 0.1581209 0.034009356051683426 0.9992976784706116 -0.01573946699500084 255.0 38.0 1.0 1.0
-0.93090647 -0.2718657 0.15810932 0.034009356051683426 0.9992976784706116 -0.01573946699500084 255.0 38.0 1.0 1.0
-0.94851685 -0.2657184 0.18679078 0.04448918625712395 0.997889518737793 -0.047300565987825394 255.0 39.0 1.0 1.0
-0.93059522 -0.27127621 0.1838014 0.04448918625712395 0.997889518737793 -0.047300565987825394 255.0 39.0 1.0 1.0
-0.92478561 -0.25878578 0.20806241 0.023826370015740395 0.9997045397758484 -0.004823571536689997 255.0 40.0 1.0 1.0
-0.94081187 -0.27391383 0.21228099 0.04443937912583351 0.9967723488807678 -0.06685811281204224 255.0 40.0 1.0 1.0
-0.95316005 -0.26581872 0.24159658 0.04573435336351395 0.9982861876487732 -0.03651222586631775 255.0 41.0 1.0 1.0
-0.9130004 -0.26502267 0.23210822 0.027657896280288696 0.998488187789917 -0.047503020614385605 255.0 41.0 1.0 1.0
-0.94319582 -0.26255295 0.26621726 0.04575271159410477 0.9986869096755981 -0.023045625537633896 255.0 42.0 1.0 1.0
-0.92927927 -0.26922721 0.26306063 0.04575271159410477 0.9986869096755981 -0.023045625537633896 255.0 42.0 1.0 1.0
-0.93999648 -0.26081491 0.29318076 0.026745811104774475 0.9973592758178711 -0.06752019375562668 255.0 43.0 1.0 1.0
-0.93354392 -0.26960531 0.29201922 0.030087094753980637 0.9965341091156006 -0.07755457609891891 255.0 43.0 1.0 1.0
-0.93973076 -0.25989076 0.3214269 0.026745811104774475 0.9973592758178711 -0.06752019375562668 255.0 44.0 1.0 1.0
-0.90775037 -0.26136714 0.31140807 0.026745811104774475 0.9973592758178711 -0.06752019375562668 255.0 44.0 1.0 1.0
-0.91317505 -0.2517584 0.3406412 0.041700124740600586 0.9981980919837952 -0.04314737766981125 255.0 45.0 1.0 1.0
-0.924981 -0.26546144 0.34603783 0.041700124740600586 0.9981980919837952 -0.04314737766981125 255.0 45.0 1.0 1.0
-0.91873336 -0.25228032 0.37159237 0.027773631736636162 0.9972482919692993 -0.06873572617769241 255.0 46.0 1.0 1.0
-0.93039429 -0.26598617 0.377388 0.027773631736636162 0.9972482919692993 -0.06873572617769241 255.0 46.0 1.0 1.0
-0.91247982 -0.24957867 0.39888543 0.03219824284315109 0.9964665770530701 -0.07757462561130524 255.0 47.0 1.0 1.0
-0.89209509 -0.25411576 0.39111266 0.032235756516456604 0.9976274371147156 -0.06083085387945175 255.0 47.0 1.0 1.0
-0.88776594 -0.44496161 0.45165947 0.016865486279129982 0.9972015619277954 -0.0728321373462677 253.0 48.0 1.0 1.0
-0.89927673 -0.46255758 0.45992067 0.016865486279129982 0.9972015619277954 -0.0728321373462677 253.0 48.0 1.0 1.0
-0.90145421 -0.45302132 0.49309322 0.03178919106721878 0.9965371489524841 -0.07683245092630386 255.0 49.0 1.0 1.0
-0.89667517 -0.46245703 0.49308112 0.016868436709046364 0.997376024723053 -0.07040312886238098 250.0 49.0 1.0 1.0
-0.8881616 -0.44777167 0.52124035 0.016462896019220352 0.9962635636329651 -0.08478176593780518 250.0 50.0 1.0 1.0
-0.89603865 -0.46356258 0.52864903 0.016462896019220352 0.9962635636329651 -0.08478176593780518 255.0 50.0 1.0 1.0
-0.87703329 -0.44376686 0.55130863 0.03795691207051277 0.9936313033103943 -0.10609525442123413 241.0 51.0 1.0 1.0
-0.87855238 -0.45615342 0.55520725 0.03795691207051277 0.9936313033103943 -0.10609525442123413 238.0 51.0 1.0 1.0
-0.87104237 -0.4423244 0.58559507 0.04567532613873482 0.9948143362998962 -0.09087508916854858 238.0 52.0 1.0 1.0
-0.87247014 -0.45460418 0.58969319 0.008892642334103584 0.9934215545654297 -0.1141691505908966 238.0 52.0 1.0 1.0
-0.85454094 -0.43609354 0.61393148 0.008892642334103584 0.9934215545654297 -0.1141691505908966 226.0 53.0 1.0 1.0
-0.86189634 -0.45127302 0.62253737 0.008892642334103584 0.9934215545654297 -0.1141691505908966 238.0 53.0 1.0 1.0
-0.85156316 -0.43688351 0.65368873 0.032976578921079636 0.994772732257843 -0.09664260596036911 229.0 54.0 1.0 1.0
-0.85866344 -0.45193538 0.66269445 -0.0018218717304989696 0.9980710744857788 -0.06205522269010544 229.0 54.0 1.0 1.0
-0.85837018 -0.44269276 0.70381516 0.03305768594145775 0.9972193837165833 -0.06678859889507294 235.0 55.0 1.0 1.0
-0.85084325 -0.45017067 0.70144951 0.03305768594145775 0.9972193837165833 -0.06678859889507294 241.0 55.0 1.0 1.0
-0.8428849 -0.4375954 0.73853064 0.03166993334889412 0.9956433176994324 -0.08770029991865158 226.0 56.0 1.0 1.0
-0.84385478 -0.44937983 0.7434268 0.03166993334889412 0.9956433176994324 -0.08770029991865158 223.0 56.0 1.0 1.0
-0.83391821 -0.43598384 0.78131491 0.02070232853293419 0.9993117451667786 -0.03077804110944271 226.0 57.0 1.0 1.0
-0.84018773 -0.45051655 0.79151767 0.02070232853293419 0.9993117451667786 -0.03077804110944271 229.0 57.0 1.0 1.0
-0.83324248 -0.43904069 0.83566105 0.023505615070462227 0.9991986155509949 -0.032398972660303116 232.0 58.0 1.0 1.0
-0.82861751 -0.44776413 0.83564979 0.023505615070462227 0.9991986155509949 -0.032398972660303116 226.0 58.0 1.0 1.0
-0.82131952 -0.43671325 0.88384485 0.025786546990275383 0.998532235622406 -0.04762926325201988 220.0 59.0 1.0 1.0
-0.83711731 -0.45638865 0.90586245 0.025948822498321533 0.9985356330871582 -0.04746724292635918 235.0 59.0 1.0 1.0
-0.8283844 -0.44537348 0.95893079 0.0170427355915308 0.9995794296264648 -0.02346544712781906 247.0 60.0 1.0 1.0
-0.84089088 -0.46348751 0.97889835 0.017036350443959236 0.9992048740386963 -0.03604694828391075 255.0 60.0 1.0 1.0
-0.82320827 -0.44808188 1.0281142 0.010395318269729614 0.9995957016944885 -0.02646421641111374 253.0 61.0 1.0 1.0
-0.82556194 -0.46063069 1.0369664 0.020482273772358894 0.999122142791748 -0.03654356300830841 253.0 61.0 1.0 1.0
-0.81727767 -0.45128104 1.1058599 0.010583672672510147 0.9995895028114319 -0.02662566676735878 253.0 62.0 1.0 1.0
-0.82152563 -0.46490943 1.1180688 0.010583672672510147 0.9995895028114319 -0.02662566676735878 255.0 62.0 1.0 1.0
-0.81127548 -0.45570853 1.1959321 0.02977677620947361 0.9986437559127808 -0.0427083782851696 255.0 63.0 1.0 1.0
-0.81287855 -0.4678703 1.2053879 0.02977677620947361 0.9986437559127808 -0.0427083782851696 255.0 63.0 1.0 1.0
-0.8339361 -0.43596223 0.78131557 0.02070232853293419 0.9993117451667786 -0.03077804110944271 226.0 57.0 1.0 1.0
-0.48214808 -0.10041481 -0.64954925 0.2070833295583725 -0.004548332188278437 0.9783127307891846 247.0 0.0 1.0 1.0
-0.48343855 -0.10598593 -0.65273881 0.2070833295583725 -0.004548332188278437 0.9783127307891846 250.0 0.0 1.0 1.0
-0.51431525 -0.11076182 -0.63820875 0.3363293409347534 0.01929691806435585 0.9415466785430908 244.0 1.0 1.0 1.0
-0.51810336 -0.11727046 -0.64438063 0.3363293409347534 0.01929691806435585 0.9415466785430908 238.0 1.0 1.0 1.0
-0.54741728 -0.12097796 -0.62964493 0.2564530670642853 0.09983062744140625 0.9613874554634094 229.0 2.0 1.0 1.0
-0.55391163 -0.12850796 -0.63860303 0.2564530670642853 0.09983062744140625 0.9613874554634094 238.0 2.0 1.0 1.0
-0.59891087 -0.13537659 -0.64014953 0.24046708643436432 -0.07134665548801422 0.968031644821167 244.0 3.0 1.0 1.0
-0.58126867 -0.1378502 -0.62285697 0.24046708643436432 -0.07134665548801422 0.968031644821167 226.0 3.0 1.0 1.0
-0.62563372 -0.14394487 -0.62359309 0.21579653024673462 0.07498858124017715 0.9735546708106995 229.0 4.0 1.0 1.0
-0.62409431 -0.15050322 -0.6236006 0.23734444379806519 0.0746036097407341 0.9685565829277039 229.0 4.0 1.0 1.0
-0.68021441 -0.15907662 -0.63337982 0.18744046986103058 0.023004621267318726 0.9820065498352051 244.0 5.0 1.0 1.0
-0.68427795 -0.16760686 -0.63875514 0.18744046986103058 0.023004621267318726 0.9820065498352051 250.0 5.0 1.0 1.0
-0.72357678 -0.17158993 -0.63045514 0.17193877696990967 -0.011870237998664379 0.9850360751152039 250.0 6.0 1.0 1.0
-0.71581244 -0.17771074 -0.62529671 0.17193877696990967 -0.011870237998664379 0.9850360751152039 238.0 6.0 1.0 1.0
-0.76993263 -0.1846839 -0.62849653 0.14925530552864075 0.06764820218086243 0.9864819049835205 255.0 7.0 1.0 1.0
-0.77404284 -0.1942683 -0.63347375 0.13279837369918823 0.0678085908293724 0.9888207912445068 247.0 7.0 1.0 1.0
-0.80379009 -0.19472913 -0.61538148 0.16142016649246216 0.052772391587495804 0.9854737520217896 250.0 8.0 1.0 1.0
-0.80482322 -0.20393434 -0.61777622 0.16142016649246216 0.052772391587495804 0.9854737520217896 255.0 8.0 1.0 1.0
-0.85305417 -0.20868529 -0.6127454 0.1503707617521286 0.0024218878243118525 0.9886267185211182 255.0 9.0 1.0 1.0
-0.8826353 -0.22570971 -0.63561732 0.1503707617521286 0.0024218878243118525 0.9886267185211182 255.0 9.0 1.0 1.0
-0.9189406 -0.22628428 -0.61894906 0.12229343503713608 -0.04127670079469681 0.9916353225708008 255.0 10.0 1.0 1.0
-0.92950141 -0.23923172 -0.62770784 0.14034971594810486 -0.0584624782204628 0.9883744716644287 255.0 10.0 1.0 1.0
-0.99540222 -0.24689989 -0.62844014 0.08630722761154175 0.1637689471244812 0.9827160239219666 255.0 11.0 1.0 1.0
-0.9861564 -0.25562096 -0.62427694 0.08630722761154175 0.1637689471244812 0.9827160239219666 255.0 11.0 1.0 1.0
-1.0292307 -0.25682321 -0.60819983 0.08717619627714157 0.9921894073486328 0.0892217680811882 255.0 12.0 1.0 1.0
-1.0231272 -0.26672995 -0.60622495 0.08717619627714157 0.9921894073486328 0.0892217680811882 255.0 12.0 1.0 1.0
-1.0109658 -0.25383428 -0.55895293 0.045823149383068085 0.9972402453422546 0.05841328948736191 255.0 13.0 1.0 1.0
-1.0253154 -0.26887396 -0.56840605 0.01522701047360897 0.9993325471878052 0.03320292383432388 255.0 13.0 1.0 1.0
-1.0324159 -0.26038694 -0.5330767 0.015215232968330383 0.9985595941543579 -0.05145099014043808 255.0 14.0 1.0 1.0
-0.99848795 -0.26303434 -0.51699132 0.009058012627065182 0.9994624257087708 -0.031507935374975204 255.0 14.0 1.0 1.0
-0.98273104 -0.2490536 -0.47301704 0.013901929371058941 0.9992425441741943 -0.036347705870866776 255.0 15.0 1.0 1.0
-0.99409842 -0.26303887 -0.47978562 0.013901929371058941 0.9992425441741943 -0.036347705870866776 255.0 15.0 1.0 1.0
-1.0084656 -0.48251513 -0.4858239 0.01049638632684946 0.9996694922447205 -0.023467551916837692 255.0 16.0 1.0 1.0
-1.0000659 -0.49145058 -0.48424453 -0.0068140109069645405 0.9984292387962341 -0.05561152473092079 255.0 16.0 1.0 1.0
-1.0037485 -0.47901893 -0.44775379 0.00031284341821447015 0.9997413754463196 -0.022743741050362587 255.0 17.0 1.0 1.0
-1.0053509 -0.4927769 -0.45075172 0.00031284341821447015 0.9997413754463196 -0.022743741050362587 255.0 17.0 1.0 1.0
-0.98778707 -0.46998936 -0.40632281 0.001137063023634255 0.9994370341300964 -0.033531058579683304 255.0 18.0 1.0 1.0
-1.0165324 -0.49674311 -0.42024919 0.009452525526285172 0.9993930459022522 -0.03352958336472511 255.0 18.0 1.0 1.0
-0.99431646 -0.47184977 -0.3755703 -0.002710819710046053 0.9995607137680054 -0.0295121967792511 255.0 19.0 1.0 1.0
-0.99273145 -0.48390621 -0.37687388 -0.002710819710046053 0.9995607137680054 -0.0295121967792511 255.0 19.0 1.0 1.0
-0.98608953 -0.46694455 -0.34030229 -0.001036192406900227 0.9991049766540527 -0.04228738695383072 255.0 20.0 1.0 1.0
-0.98458755 -0.47892728 -0.34150499 -0.001036192406900227 0.9991049766540527 -0.04228738695383072 255.0 20.0 1.0 1.0
-0.97332662 -0.45992106 -0.30498254 0.0019615963101387024 0.9995484352111816 -0.02998545579612255 255.0 21.0 1.0 1.0
-0.97539246 -0.47345662 -0.3071734 -0.0010368216317147017 0.9997116327285767 -0.023992877453565598 255.0 21.0 1.0 1.0
-0.98765874 -0.46565303 -0.27847022 0.0019613204058259726 0.9994077682495117 -0.03435513749718666 255.0 22.0 1.0 1.0
-0.97575241 -0.47261709 -0.27650866 0.0019613204058259726 0.9994077682495117 -0.03435513749718666 255.0 22.0 1.0 1.0
-0.96945989 -0.45631281 -0.24378645 0.006331450771540403 0.9990513324737549 -0.04308454692363739 255.0 23.0 1.0 1.0
-0.98220456 -0.47492155 -0.24823073 0.006331450771540403 0.9990513324737549 -0.04308454692363739 255.0 23.0 1.0 1.0
-0.97861975 -0.46001896 -0.21674725 0.0166502445936203 0.9992659687995911 -0.034499164670705795 255.0 24.0 1.0 1.0
-0.97728997 -0.47195888 -0.21754527 0.012469968758523464 0.9995766282081604 -0.026287931948900223 255.0 24.0 1.0 1.0
-0.96226525 -0.45157412 -0.18450212 0.007645268924534321 0.9993482828140259 -0.0352778397500515 255.0 25.0 1.0 1.0
-0.98591143 -0.47529557 -0.18997994 0.016636531800031662 0.9984430074691772 -0.05324225872755051 255.0 25.0 1.0 1.0
-0.97724503 -0.45798931 -0.15866099 0.015574391931295395 0.9935643076896667 -0.11219380050897598 255.0 26.0 1.0 1.0
-0.98667556 -0.47506222 -0.16099778 0.007602709345519543 0.9937850832939148 -0.11105523258447647 255.0 26.0 1.0 1.0
-0.96995151 -0.45420519 -0.12952895 -0.03708373382687569 0.9992750287055969 -0.00861853826791048 255.0 27.0 1.0 1.0
-0.9651497 -0.4643544 -0.12954171 0.015574391931295395 0.9935643076896667 -0.11219380050897598 255.0 27.0 1.0 1.0
-0.96925992 -0.45329821 -0.10156484 -0.11917620152235031 0.9815765619277954 -0.1493467092514038 255.0 28.0 1.0 1.0
-0.96805966 -0.46515995 -0.10195497 -0.11917620152235031 0.9815765619277954 -0.1493467092514038 255.0 28.0 1.0 1.0
-0.96413171 -0.45073768 -0.073501058 -0.06622473150491714 0.988008439540863 -0.13947661221027374 255.0 29.0 1.0 1.0
-0.944969 -0.4539355 -0.0724134 -0.1339522898197174 0.9874707460403442 -0.08341626822948456 255.0 29.0 1.0 1.0
-0.96203768 -0.44938684 -0.04610065 -0.08832638710737228 0.9902080297470093 -0.10810445994138718 255.0 30.0 1.0 1.0
-0.95368242 -0.45772976 -0.045940198 -0.08832638710737228 0.9902080297470093 -0.10810445994138718 255.0 30.0 1.0 1.0
-0.96277481 -0.44976357 -0.019038532 -0.08831687271595001 0.9901013970375061 0.1090841218829155 255.0 31.0 1.0 1.0
-0.95441312 -0.45811287 -0.018979823 -0.08831687271595001 0.9901013970375061 0.1090841218829155 255.0 31.0 1.0 1.0
-0.96257973 -0.25007236 0.0079677459 0.021006939932703972 0.9979485869407654 -0.06047574058175087 255.0 32.0 1.0 1.0
-0.95991737 -0.26015618 0.0079560131 0.021006939932703972 0.9979485869407654 -0.06047574058175087 255.0 32.0 1.0 1.0
-0.96989077 -0.25162947 0.033592638 0.03296392783522606 0.9958906769752502 -0.08435165137052536 255.0 33.0 1.0 1.0
-0.94405067 -0.25555247 0.032776505 0.03296392783522606 0.9958906769752502 -0.08435165137052536 255.0 33.0 1.0 1.0
-0.93398339 -0.24221589 0.057025235 0.03305268660187721 0.9985722303390503 -0.041965752840042114 255.0 34.0 1.0 1.0
-0.96225208 -0.26030311 0.058900796 0.03305268660187721 0.9985722303390503 -0.041965752840042114 255.0 34.0 1.0 1.0
-0.94383967 -0.24478704 0.08267428 0.038599856197834015 0.9974175095558167 -0.06056835874915123 255.0 35.0 1.0 1.0
-0.94508326 -0.25571126 0.083000451 0.038599856197834015 0.9974175095558167 -0.06056835874915123 255.0 35.0 1.0 1.0
-0.96081048 -0.24883628 0.10981064 0.03322723135352135 0.9982059001922607 -0.04980996623635292 255.0 36.0 1.0 1.0
-0.94280446 -0.25477344 0.10804109 0.03322723135352135 0.9982059001922607 -0.04980996623635292 255.0 36.0 1.0 1.0
-0.93863893 -0.24280281 0.13266794 0.0339798629283905 0.9984311461448669 -0.044503919780254364 255.0 37.0 1.0 1.0
-0.95519316 -0.25777569 0.13536513 0.0339798629283905 0.9984311461448669 -0.044503919780254364 255.0 37.0 1.0 1.0
-0.9389801 -0.24239473 0.15814294 0.034009356051683426 0.9992976784706116 -0.01573946699500084 255.0 38.0 1.0 1.0
-0.93640095 -0.252233 0.15813151 0.034009356051683426 0.9992976784706116 -0.01573946699500084 255.0 38.0 1.0 1.0
-0.94245684 -0.24279024 0.18457952 0.04448918625712395 0.997889518737793 -0.047300565987825394 255.0 39.0 1.0 1.0
-0.95885706 -0.25774178 0.18829051 0.04448918625712395 0.997889518737793 -0.047300565987825394 255.0 39.0 1.0 1.0
-0.91864389 -0.23637547 0.20554581 0.023826370015740395 0.9997045397758484 -0.004823571536689997 255.0 40.0 1.0 1.0
-0.9350149 -0.25104544 0.20976511 0.023826370015740395 0.9997045397758484 -0.004823571536689997 255.0 40.0 1.0 1.0
-0.92463112 -0.23707658 0.23308896 0.04573435336351395 0.9982861876487732 -0.03651222586631775 255.0 41.0 1.0 1.0
-0.91459864 -0.244766 0.23118223 0.04573435336351395 0.9982861876487732 -0.03651222586631775 255.0 41.0 1.0 1.0
-0.94100863 -0.24075824 0.26414257 0.04575271159410477 0.9986869096755981 -0.023045625537633896 255.0 42.0 1.0 1.0
-0.93471706 -0.24962679 0.26308274 0.04575271159410477 0.9986869096755981 -0.023045625537633896 255.0 42.0 1.0 1.0
-0.91183269 -0.23251583 0.28285223 0.045670174062252045 0.9974368810653687 -0.05508216843008995 255.0 43.0 1.0 1.0
-0.93158108 -0.24795374 0.28974131 0.045670174062252045 0.9974368810653687 -0.05508216843008995 255.0 43.0 1.0 1.0
-0.91918451 -0.23355669 0.31269178 0.026745811104774475 0.9973592758178711 -0.06752019375562668 255.0 44.0 1.0 1.0
-0.92404801 -0.24512708 0.3151826 0.026745811104774475 0.9973592758178711 -0.06752019375562668 255.0 44.0 1.0 1.0
-0.9109472 -0.23066032 0.33795851 0.041700124740600586 0.9981980919837952 -0.04314737766981125 255.0 45.0 1.0 1.0
-0.91941696 -0.24307828 0.34200361 0.041700124740600586 0.9981980919837952 -0.04314737766981125 255.0 45.0 1.0 1.0
-0.93827701 -0.23652913 0.37742144 0.027773631736636162 0.9972482919692993 -0.06873572617769241 255.0 46.0 1.0 1.0
-0.9069168 -0.23880699 0.3657954 0.027773631736636162 0.9972482919692993 -0.06873572617769241 255.0 46.0 1.0 1.0
-0.89962316 -0.22586849 0.39114472 0.03219824284315109 0.9964665770530701 -0.07757462561130524 255.0 47.0 1.0 1.0
-0.90792334 -0.23808715 0.39579096 0.03219824284315109 0.9964665770530701 -0.07757462561130524 255.0 47.0 1.0 1.0
-0.89360374 -0.42463192 0.4500294 0.0255010724067688 0.99760901927948 -0.06423319876194 247.0 48.0 1.0 1.0
-0.8760215 -0.42761683 0.44339874 0.0255010724067688 0.99760901927948 -0.06423319876194 235.0 48.0 1.0 1.0
-0.87502992 -0.41700616 0.47381216 0.03178919106721878 0.9965371489524841 -0.07683245092630386 235.0 49.0 1.0 1.0
-0.88032204 -0.4308919 0.47906584 0.03178919106721878 0.9965371489524841 -0.07683245092630386 244.0 49.0 1.0 1.0
-0.88455045 -0.42289576 0.51384407 0.03178919106721878 0.9965371489524841 -0.07683245092630386 253.0 50.0 1.0 1.0
-0.89282167 -0.43838352 0.52125329 0.016462896019220352 0.9962635636329651 -0.08478176593780518 253.0 50.0 1.0 1.0
-0.87669301 -0.42070419 0.5454672 0.03795691207051277 0.9936313033103943 -0.10609525442123413 232.0 51.0 1.0 1.0
-0.87538689 -0.43141955 0.54741091 0.03795691207051277 0.9936313033103943 -0.10609525442123413 235.0 51.0 1.0 1.0
-0.858459 -0.41351095 0.57123417 0.04567532613873482 0.9948143362998962 -0.09087508916854858 232.0 52.0 1.0 1.0
-0.86333227 -0.4270483 0.57738787 0.04567532613873482 0.9948143362998962 -0.09087508916854858 244.0 52.0 1.0 1.0
-0.85438144 -0.4136264 0.60749209 0.04491659998893738 0.99496990442276 -0.08954036235809326 226.0 53.0 1.0 1.0
-0.85001868 -0.42257151 0.60748076 0.008892642334103584 0.9934215545654297 -0.1141691505908966 223.0 53.0 1.0 1.0
-0.86350042 -0.420311 0.65596712 0.032976578921079636 0.994772732257843 -0.09664260596036911 232.0 54.0 1.0 1.0
-0.87089986 -0.43524098 0.66497314 0.032976578921079636 0.994772732257843 -0.09664260596036911 238.0 54.0 1.0 1.0
-0.84419894 -0.41319758 0.68500572 0.045460812747478485 0.9947582483291626 -0.09159322082996368 229.0 55.0 1.0 1.0
-0.85140991 -0.42782536 0.69441122 0.03305768594145775 0.9972193837165833 -0.06678859889507294 238.0 55.0 1.0 1.0
-0.84619296 -0.41697788 0.73364663 0.04555034637451172 0.9967174530029297 -0.06692855805158615 223.0 56.0 1.0 1.0
-0.83897591 -0.4244163 0.73118156 0.03166993334889412 0.9956433176994324 -0.08770029991865158 223.0 56.0 1.0 1.0
-0.83458501 -0.41424483 0.77367771 0.02070232853293419 0.9993117451667786 -0.03077804110944271 229.0 57.0 1.0 1.0
-0.84120136 -0.42855555 0.78388095 0.02070232853293419 0.9993117451667786 -0.03077804110944271 229.0 57.0 1.0 1.0
-0.81546056 -0.40805593 0.8091529 0.017676154151558876 0.9986760020256042 -0.04831112548708916 217.0 58.0 1.0 1.0
-0.83248174 -0.42749894 0.83036721 0.023490505293011665 0.9985563158988953 -0.04830533638596535 223.0 58.0 1.0 1.0
-0.83805829 -0.42323989 0.8921293 0.025786546990275383 0.998532235622406 -0.04762926325201988 232.0 59.0 1.0 1.0
-0.83617693 -0.43334559 0.89487183 0.025786546990275383 0.998532235622406 -0.04762926325201988 232.0 59.0 1.0 1.0
-0.82503802 -0.42148381 0.94468325 0.02538837492465973 0.9995220303535461 -0.01764199696481228 238.0 60.0 1.0 1.0
-0.82308269 -0.43141925 0.94752651 0.02538837492465973 0.9995220303535461 -0.01764199696481228 238.0 60.0 1.0 1.0
-0.82281947 -0.42571303 1.0163194 0.010395318269729614 0.9995957016944885 -0.02646421641111374 247.0 61.0 1.0 1.0
-0.82548809 -0.43810877 1.025172 0.010395318269729614 0.9995957016944885 -0.02646421641111374 255.0 61.0 1.0 1.0
-0.81510377 -0.42799193 1.090608 0.006334314588457346 0.9995032548904419 -0.030871814116835594 253.0 62.0 1.0 1.0
-0.81287336 -0.43774754 1.0936521 0.006334314588457346 0.9995032548904419 -0.030871814116835594 255.0 62.0 1.0 1.0
-0.8141247 -0.43506056 1.1864885 0.017718341201543808 0.9987018704414368 -0.04775421321392059 255.0 63.0 1.0 1.0
-0.81817633 -0.4482955 1.1991004 0.017059622332453728 0.9986497759819031 -0.049067310988903046 255.0 63.0 1.0 1.0
-0.47939649 -0.089370728 -0.64317083 0.2070833295583725 -0.004548332188278437 0.9783127307891846 241.0 0.0 1.0 1.0
-0.4903205 -0.096716113 -0.65909505 0.2070833295583725 -0.004548332188278437 0.9783127307891846 253.0 0.0 1.0 1.0
-0.53406107 -0.1032671 -0.65977621 0.18495258688926697 0.0026300677563995123 0.9827439785003662 253.0 1.0 1.0 1.0
-0.51046723 -0.1043257 -0.6320374 0.20701774954795837 0.025574827566742897 0.9780028462409973 235.0 1.0 1.0 1.0
-0.55245948 -0.10995086 -0.63261616 0.33580291271209717 0.059153664857149124 0.9400730133056641 235.0 2.0 1.0 1.0
-0.5617131 -0.11791276 -0.64455765 0.2564530670642853 0.09983062744140625 0.9613874554634094 241.0 2.0 1.0 1.0
-0.59891242 -0.12220275 -0.63725257 0.2821389436721802 -0.061202604323625565 0.9574193954467773 238.0 3.0 1.0 1.0
-0.58404315 -0.12559471 -0.6228435 0.2821389436721802 -0.061202604323625565 0.9574193954467773 229.0 3.0 1.0 1.0
-0.63133973 -0.1313374 -0.62636226 0.1975359171628952 0.05779403820633888 0.9785905480384827 232.0 4.0 1.0 1.0
-0.63273901 -0.13856575 -0.62915331 0.1975359171628952 0.05779403820633888 0.9785905480384827 238.0 4.0 1.0 1.0
-0.66309172 -0.14047334 -0.61457998 0.10923454910516739 0.012193314731121063 0.9939411878585815 241.0 5.0 1.0 1.0
-0.6760686 -0.15062435 -0.62800539 0.171946719288826 0.006995949894189835 0.9850814342498779 238.0 5.0 1.0 1.0
-0.71508169 -0.15379325 -0.62010461 0.17193877696990967 -0.011870237998664379 0.9850360751152039 238.0 6.0 1.0 1.0
-0.70449501 -0.15928251 -0.6123625 0.17193877696990967 -0.011870237998664379 0.9850360751152039 238.0 6.0 1.0 1.0
-0.75526059 -0.16448647 -0.61357582 0.14925530552864075 0.06764820218086243 0.9864819049835205 244.0 7.0 1.0 1.0
-0.76267117 -0.17448466 -0.62103647 0.14925530552864075 0.06764820218086243 0.9864819049835205 250.0 7.0 1.0 1.0
-0.8077085 -0.17779371 -0.61536312 0.14570625126361847 0.06085783615708351 0.9874542355537415 250.0 8.0 1.0 1.0
-0.80267489 -0.18553814 -0.61298788 0.16379043459892273 0.052751507610082626 0.985083818435669 253.0 8.0 1.0 1.0
-0.86366451 -0.19213039 -0.61729801 0.1503707617521286 0.0024218878243118525 0.9886267185211182 255.0 9.0 1.0 1.0
-0.8903839 -0.20785663 -0.63788307 0.1503707617521286 0.0024218878243118525 0.9886267185211182 255.0 9.0 1.0 1.0
-0.92022645 -0.20619863 -0.61674136 0.12229343503713608 -0.04127670079469681 0.9916353225708008 255.0 10.0 1.0 1.0
-0.92454159 -0.21736352 -0.621126 0.12229343503713608 -0.04127670079469681 0.9916353225708008 255.0 10.0 1.0 1.0
-0.98039824 -0.22144806 -0.61589223 0.08630722761154175 0.1637689471244812 0.9827160239219666 255.0 11.0 1.0 1.0
-1.0012752 -0.23719525 -0.63051707 0.08630722761154175 0.1637689471244812 0.9827160239219666 255.0 11.0 1.0 1.0
-1.0208583 -0.23208289 -0.60022724 0.4153791069984436 0.9039561748504639 0.10160428285598755 255.0 12.0 1.0 1.0
-1.011619 -0.24117288 -0.59626478 0.08717619627714157 0.9921894073486328 0.0892217680811882 255.0 12.0 1.0 1.0
-1.0057622 -0.23019129 -0.55326569 0.02545640617609024 0.9979652762413025 0.05845576152205467 255.0 13.0 1.0 1.0
-1.0273094 -0.24645652 -0.56649441 0.045823149383068085 0.9972402453422546 0.05841328948736191 255.0 13.0 1.0 1.0
-0.99580687 -0.22906488 -0.5115906 0.015215232968330383 0.9985595941543579 -0.05145099014043808 255.0 14.0 1.0 1.0
-1.0142319 -0.24450183 -0.5223341 0.015215232968330383 0.9985595941543579 -0.05145099014043808 255.0 14.0 1.0 1.0
-0.99128079 -0.22916296 -0.47468364 0.013901929371058941 0.9992425441741943 -0.036347705870866776 255.0 15.0 1.0 1.0
-0.99235535 -0.24039608 -0.47638455 0.013901929371058941 0.9992425441741943 -0.036347705870866776 255.0 15.0 1.0 1.0
-1.0049951 -0.45518345 -0.47942629 -0.0021243153605610132 0.9997223019599915 -0.02346879430115223 255.0 16.0 1.0 1.0
-1.0134907 -0.47187573 -0.48580977 -0.0021243153605610132 0.9997223019599915 -0.02346879430115223 255.0 16.0 1.0 1.0
-1.0101987 -0.45630071 -0.44623441 0.00031289164326153696 0.9998955130577087 -0.014448138885200024 255.0 17.0 1.0 1.0
-0.99526465 -0.46219432 -0.44177076 0.00031289164326153696 0.9998955130577087 -0.014448138885200024 255.0 17.0 1.0 1.0
-1.0008563 -0.45066553 -0.40768728 -0.009336662478744984 0.9998770952224731 -0.012597375549376011 255.0 18.0 1.0 1.0
-0.99268138 -0.45956624 -0.40630901 -0.009336662478744984 0.9998770952224731 -0.012597375549376011 255.0 18.0 1.0 1.0
-0.99363321 -0.44621357 -0.37167251 -0.0035231381189078093 0.9995089769363403 -0.03113558702170849 255.0 19.0 1.0 1.0
-1.0095485 -0.46610504 -0.37942749 -0.002710819710046053 0.9995607137680054 -0.0295121967792511 255.0 19.0 1.0 1.0
-0.9956724 -0.4461211 -0.34027568 -0.0027091766241937876 0.9989548325538635 -0.04562731087207794 255.0 20.0 1.0 1.0
-0.97706836 -0.45016575 -0.33553019 -0.0027091766241937876 0.9989548325538635 -0.04562731087207794 255.0 20.0 1.0 1.0
-0.97924852 -0.43780002 -0.30386734 0.009442825801670551 0.9992863535881042 -0.03657260164618492 255.0 21.0 1.0 1.0
-0.99561167 -0.45766369 -0.31041369 0.0019615963101387024 0.9995484352111816 -0.02998545579612255 255.0 21.0 1.0 1.0
-1.0007553 -0.44637004 -0.27943072 0.009371873922646046 0.9996597170829773 -0.024341708049178123 255.0 22.0 1.0 1.0
-0.97840434 -0.44878507 -0.2745077 0.009371873922646046 0.9996597170829773 -0.024341708049178123 255.0 22.0 1.0 1.0
-0.97169089 -0.43267459 -0.24198797 0.006336726248264313 0.999883770942688 -0.013872860930860043 255.0 23.0 1.0 1.0
-0.99195391 -0.45417622 -0.24820401 0.006331450771540403 0.9990513324737549 -0.04308454692363739 255.0 23.0 1.0 1.0
-0.99164307 -0.44093966 -0.21750587 0.0166502445936203 0.9992659687995911 -0.034499164670705795 255.0 24.0 1.0 1.0
-0.95485497 -0.43668059 -0.21045342 0.0166502445936203 0.9992659687995911 -0.034499164670705795 255.0 24.0 1.0 1.0
-0.97152847 -0.4312503 -0.1844762 0.007870116271078587 0.9993465542793274 -0.035277776420116425 255.0 25.0 1.0 1.0
-0.98849154 -0.45120782 -0.18858705 0.007645268924534321 0.9993482828140259 -0.0352778397500515 255.0 25.0 1.0 1.0
-0.98663902 -0.43734944 -0.15863468 0.015574391931295395 0.9935643076896667 -0.11219380050897598 255.0 26.0 1.0 1.0
-0.99282193 -0.45258474 -0.16039009 0.015574391931295395 0.9935643076896667 -0.11219380050897598 255.0 26.0 1.0 1.0
-0.96836776 -0.42890894 -0.12806466 -0.03708373382687569 0.9992750287055969 -0.00861853826791048 255.0 27.0 1.0 1.0
-0.97467905 -0.44396687 -0.1295155 -0.03708373382687569 0.9992750287055969 -0.00861853826791048 255.0 27.0 1.0 1.0
-0.97126818 -0.42961407 -0.10078432 -0.0370374396443367 0.998027503490448 -0.05068814009428024 255.0 28.0 1.0 1.0
-0.96672386 -0.43977848 -0.10079687 -0.0370374396443367 0.998027503490448 -0.05068814009428024 255.0 28.0 1.0 1.0
-0.95876729 -0.4239381 -0.072375342 -0.08832638710737228 0.9902080297470093 -0.10810445994138718 255.0 29.0 1.0 1.0
-0.97245789 -0.44220632 -0.073762685 -0.06622473150491714 0.988008439540863 -0.13947661221027374 255.0 29.0 1.0 1.0
-0.9602797 -0.42423621 -0.045555871 -0.08832638710737228 0.9902080297470093 -0.10810445994138718 255.0 30.0 1.0 1.0
-0.97399592 -0.44252637 -0.046433352 -0.08832638710737228 0.9902080297470093 -0.10810445994138718 255.0 30.0 1.0 1.0
-0.94637376 -0.41814804 -0.018514022 -0.018000271171331406 0.9993199706077576 -0.03217801824212074 255.0 31.0 1.0 1.0
-0.9455952 -0.42970222 -0.018597528 -0.018000271171331406 0.9993199706077576 -0.03217801824212074 255.0 31.0 1.0 1.0
-0.94814938 -0.22518566 0.0078280969 0.021006939932703972 0.9979485869407654 -0.06047574058175087 255.0 32.0 1.0 1.0
-0.96127993 -0.23896019 0.0079459604 0.021006939932703972 0.9979485869407654 -0.06047574058175087 255.0 32.0 1.0 1.0
-0.94771791 -0.22476196 0.032675605 0.03296392783522606 0.9958906769752502 -0.08435165137052536 255.0 33.0 1.0 1.0
-0.98413324 -0.24427535 0.034005638 0.03296392783522606 0.9958906769752502 -0.08435165137052536 255.0 33.0 1.0 1.0
-0.96217674 -0.22802301 0.058462698 0.03861627355217934 0.9978417754173279 -0.05311059579253197 255.0 34.0 1.0 1.0
-0.94423872 -0.23427729 0.057507366 0.03861627355217934 0.9978417754173279 -0.05311059579253197 255.0 34.0 1.0 1.0
-0.94876504 -0.22489025 0.082695961 0.038599856197834015 0.9974175095558167 -0.06056835874915123 255.0 35.0 1.0 1.0
-0.96958542 -0.24056128 0.084711134 0.038599856197834015 0.9974175095558167 -0.06056835874915123 255.0 35.0 1.0 1.0
-0.96581662 -0.22858214 0.10983267 0.043880999088287354 0.9967349171638489 -0.06777789443731308 255.0 36.0 1.0 1.0
-0.95565951 -0.23679864 0.10894203 0.03322723135352135 0.9982059001922607 -0.04980996623635292 255.0 36.0 1.0 1.0
-0.94738084 -0.22392187 0.13323134 0.0435771569609642 0.998059093952179 -0.04448733851313591 255.0 37.0 1.0 1.0
-0.92190462 -0.22816558 0.12996915 0.0339798629283905 0.9984311461448669 -0.044503919780254364 255.0 37.0 1.0 1.0
-0.94385499 -0.22259943 0.15816449 0.026186907663941383 0.9985359311103821 -0.04733120650053024 255.0 38.0 1.0 1.0
-0.94531679 -0.23343098 0.15879637 0.04448918625712395 0.997889518737793 -0.047300565987825394 255.0 38.0 1.0 1.0
-0.95499218 -0.22471237 0.18609038 0.026186907663941383 0.9985359311103821 -0.04733120650053024 255.0 39.0 1.0 1.0
-0.93732899 -0.230977 0.18310066 0.04448918625712395 0.997889518737793 -0.047300565987825394 255.0 39.0 1.0 1.0
-0.92339623 -0.21700716 0.20556688 0.05118772014975548 0.9975607991218567 -0.04745890200138092 255.0 40.0 1.0 1.0
-0.93627381 -0.23040082 0.20894057 0.023826370015740395 0.9997045397758484 -0.004823571536689997 255.0 40.0 1.0 1.0
-0.95210558 -0.22286822 0.23879735 0.04573435336351395 0.9982861876487732 -0.03651222586631775 255.0 41.0 1.0 1.0
-0.9119764 -0.22363868 0.22930776 0.04573435336351395 0.9982861876487732 -0.03651222586631775 255.0 41.0 1.0 1.0
-0.9345668 -0.21829848 0.26101851 0.04572751745581627 0.9986891746520996 -0.022995078936219215 255.0 42.0 1.0 1.0
-0.9172383 -0.22444177 0.25681341 0.04572751745581627 0.9986891746520996 -0.022995078936219215 255.0 42.0 1.0 1.0
-0.92023683 -0.21415295 0.28402328 0.045670174062252045 0.9974368810653687 -0.05508216843008995 255.0 43.0 1.0 1.0
-0.94029504 -0.22921278 0.29091296 0.045670174062252045 0.9974368810653687 -0.05508216843008995 255.0 43.0 1.0 1.0
-0.9312802 -0.21588184 0.31521505 0.03478926792740822 0.9989593625068665 -0.02949444018304348 255.0 44.0 1.0 1.0
-0.91790128 -0.22296551 0.31145072 0.05371164530515671 0.9962760806083679 -0.06744686514139175 255.0 44.0 1.0 1.0
-0.92658627 -0.21397907 0.34203589 0.027836183086037636 0.9994943737983704 -0.01536723505705595 255.0 45.0 1.0 1.0
-0.91332716 -0.22104706 0.33796841 0.027836183086037636 0.9994943737983704 -0.01536723505705595 255.0 45.0 1.0 1.0
-0.9139573 -0.21010236 0.36582723 0.027773631736636162 0.9972482919692993 -0.06873572617769241 255.0 46.0 1.0 1.0
-0.91534448 -0.22054923 0.36726823 0.027773631736636162 0.9972482919692993 -0.06873572617769241 255.0 46.0 1.0 1.0
-0.92931831 -0.21262115 0.40203279 0.03219824284315109 0.9964665770530701 -0.07757462561130524 255.0 47.0 1.0 1.0
