ply
format ascii 1.0
element vertex 422
property float x
property float y
property float z
property float nx
property float ny
property float nz
property float intensity
property float ring
property float return
property float label
end_header
-0.44894856 -1.6257615 1.5998281 -0.13302968442440033 -0.06160206347703934 -0.9891957640647888 253.0 59.0 1.0 1.0
-0.43194801 -1.6303922 1.5998001 -0.14255018532276154 -0.061519745737314224 -0.9878738522529602 255.0 59.0 1.0 1.0
-0.41317642 -1.5238115 1.6066816 -0.0988277941942215 -0.040613241493701935 -0.9942753911018372 255.0 60.0 1.0 1.0
-0.39512971 -1.5199428 1.5980867 -0.13213109970092773 -0.07425777614116669 -0.9884468913078308 250.0 60.0 1.0 1.0
-0.3772651 -1.4214963 1.6098298 -0.12736915051937103 -0.06613399088382721 -0.989648163318634 253.0 61.0 1.0 1.0
-0.36307144 -1.4279988 1.6127617 -0.12732593715190887 -0.07105892896652222 -0.9893122911453247 253.0 61.0 1.0 1.0
-0.34548992 -1.3334376 1.6277692 -0.15528182685375214 -0.06716948747634888 -0.9855839610099792 255.0 62.0 1.0 1.0
-0.33279881 -1.3420089 1.6338602 -0.15556861460208893 -0.02883251942694187 -0.9874041676521301 255.0 62.0 1.0 1.0
-0.30946988 -1.2314322 1.6275696 -0.1690288484096527 -0.08118057250976562 -0.9822621941566467 255.0 63.0 1.0 1.0
-0.30119842 -1.2537255 1.6528081 -0.07306194305419922 -0.03508992865681648 -0.9967098832130432 255.0 63.0 1.0 1.0
-0.68562323 -1.2117265 -1.4390391 -0.0922936424612999 -0.9909875392913818 -0.09708552062511444 10.0 3.0 2.0 1.0
-0.83759296 -1.5063461 -1.550907 -0.30714088678359985 0.5530378222465515 0.7744764089584351 5.0 5.0 2.0 1.0
-0.86436009 -1.5932364 -1.6313664 -0.30714088678359985 0.5530378222465515 0.7744764089584351 166.0 5.0 2.0 1.0
-1.4216695 -2.7187338 -1.7489566 -0.33494627475738525 0.9419046640396118 -0.0250292606651783 238.0 12.0 2.0 1.0
-1.4477683 -2.7078199 -1.63684 -0.3940005600452423 0.9190091490745544 -0.01362447626888752 15.0 13.0 2.0 1.0
-0.44000414 -0.71397465 -1.0930505 -0.8467418551445007 0.5213602185249329 0.10588563233613968 255.0 0.0 1.0 1.0
-0.43004894 -0.71436512 -1.0866988 -0.8339637517929077 0.5472996234893799 0.07048048079013824 187.0 0.0 1.0 1.0
-0.44190741 -0.72820985 -1.0213283 -0.8797391653060913 0.4717695116996765 0.05909726023674011 255.0 1.0 1.0 1.0
-0.4330067 -0.73057717 -1.0182595 -0.8797391653060913 0.4717695116996765 0.05909726023674011 238.0 1.0 1.0 1.0
-0.43424445 -0.72455311 -0.93773359 -0.38864368200302124 0.9182494282722473 -0.07598729431629181 255.0 2.0 1.0 1.0
-0.43479657 -0.74282593 -0.95563477 0.17016425728797913 -0.9455214738845825 -0.27754920721054077 255.0 2.0 1.0 1.0
-0.4225651 -0.71312618 -0.8541832 -0.0922936424612999 -0.9909875392913818 -0.09708552062511444 253.0 3.0 1.0 1.0
-0.43046749 -0.74387687 -0.88588524 -0.0922936424612999 -0.9909875392913818 -0.09708552062511444 255.0 3.0 1.0 1.0
-0.42013028 -0.71565801 -0.79674947 0.002927933819591999 -0.4636085033416748 -0.8860353231430054 250.0 4.0 1.0 1.0
-0.41553587 -0.72497696 -0.80232364 0.002927933819591999 -0.4636085033416748 -0.8860353231430054 247.0 4.0 1.0 1.0
-0.43864796 -0.75315338 -0.78141248 -0.09058690071105957 0.5787378549575806 0.8104668855667114 255.0 5.0 1.0 1.0
-0.41901514 -0.73705912 -0.75997633 -0.30714088678359985 0.5530378222465515 0.7744764089584351 229.0 5.0 1.0 1.0
-0.98152971 -1.6936342 -1.6478008 -0.07950108498334885 0.04918396472930908 0.9956206679344177 255.0 6.0 1.0 1.0
-0.97434419 -1.7223904 -1.6658958 0.12313510477542877 0.1151064857840538 0.9856918454170227 255.0 6.0 1.0 1.0
-1.0610386 -1.841916 -1.6758907 0.08171240985393524 0.23183433711528778 0.9693172574043274 255.0 7.0 1.0 1.0
-1.0355898 -1.8419521 -1.6659957 0.08394631743431091 0.03607318177819252 0.9958171844482422 255.0 7.0 1.0 1.0
-1.1094617 -1.9362273 -1.6494421 -0.09442337602376938 0.9896360039710999 0.1081886813044548 255.0 8.0 1.0 1.0
-1.1048839 -1.9757339 -1.6732967 -0.05293123796582222 0.8344724178314209 0.5485016703605652 217.0 8.0 1.0 1.0
-1.121213 -1.9672767 -1.5694984 -0.2677265703678131 0.9634364247322083 0.010620816610753536 255.0 9.0 1.0 1.0
-1.0910164 -1.961658 -1.5558304 0.932071328163147 0.035350069403648376 0.3605462312698364 184.0 9.0 1.0 1.0
-1.1225315 -1.9770418 -1.4771514 -0.07888122648000717 0.9961281418800354 0.03881273418664932 255.0 10.0 1.0 1.0
-1.0904404 -1.9681412 -1.4618953 -0.27244502305984497 0.9524942636489868 0.13611853122711182 214.0 10.0 1.0 1.0
-1.1213784 -1.9832931 -1.3869964 -0.030689416453242302 0.9994165897369385 -0.014982799999415874 255.0 11.0 1.0 1.0
-1.1006036 -1.9948926 -1.3870289 -0.2995506823062897 0.9539118409156799 -0.017932869493961334 241.0 11.0 1.0 1.0
-1.1085482 -1.968065 -1.2864583 -0.006049368064850569 0.9999158382415771 -0.01147606410086155 255.0 12.0 1.0 1.0
-1.0979826 -1.9977874 -1.2983975 -0.19434970617294312 0.9808480739593506 -0.012852518819272518 250.0 12.0 1.0 1.0
-1.1114038 -1.9789875 -1.2088295 0.014980022795498371 0.9994943141937256 -0.028047621250152588 255.0 13.0 1.0 1.0
-1.1042531 -2.0152278 -1.2239438 -0.19409596920013428 0.9795674681663513 -0.052672743797302246 255.0 13.0 1.0 1.0
-1.1043755 -1.9715302 -1.123493 0.010588746517896652 0.9988727569580078 -0.04627241566777229 255.0 14.0 1.0 1.0
-1.1009104 -2.0143538 -1.1413821 -0.146306574344635 0.9882129430770874 -0.04505122825503349 255.0 14.0 1.0 1.0
-1.0992653 -1.9674486 -1.0439128 0.014822077937424183 0.9997907876968384 -0.014098032377660275 255.0 15.0 1.0 1.0
-1.1029921 -2.0233943 -1.0675508 -0.0350298173725605 0.9962337017059326 -0.07931771874427795 255.0 15.0 1.0 1.0
-1.1705532 -3.6271131 -1.6471786 -0.5507363080978394 0.830489456653595 -0.08352675288915634 241.0 16.0 1.0 1.0
-1.1740297 -3.7723043 -1.7076552 -0.005286477971822023 0.9999131560325623 -0.012071721255779266 232.0 16.0 1.0 1.0
-1.1246161 -3.4730108 -1.4611565 -0.6756049394607544 0.7368342876434326 -0.02516326867043972 163.0 17.0 1.0 1.0
-1.1624236 -3.7219682 -1.5610101 0.02448037825524807 0.9982067942619324 -0.054624948650598526 238.0 17.0 1.0 1.0
-1.1196301 -3.443856 -1.3369503 -0.8847701549530029 0.45415589213371277 0.10451807826757431 214.0 18.0 1.0 1.0
-1.1531876 -3.6772723 -1.4230919 0.006963538005948067 0.9993945956230164 -0.034088075160980225 226.0 18.0 1.0 1.0
-1.1373109 -3.4863663 -1.2435189 -0.9599769711494446 0.24836722016334534 0.12945258617401123 253.0 19.0 1.0 1.0
-1.1440153 -3.6353202 -1.2925037 -0.21696802973747253 0.9761248826980591 0.010252886451780796 226.0 19.0 1.0 1.0
-1.1381674 -3.4792449 -1.134196 -0.8927472829818726 0.4081711173057556 0.19078437983989716 255.0 20.0 1.0 1.0
-1.1005762 -3.4872999 -1.1330684 -0.9318404793739319 0.34359437227249146 0.11668834835290909 178.0 20.0 1.0 1.0
-1.147548 -3.4981108 -1.0356787 -0.9915323853492737 -0.02002892829477787 0.1283060908317566 255.0 21.0 1.0 1.0
-1.1132324 -3.5172479 -1.0379103 -0.9492274522781372 0.29238593578338623 0.11609326303005219 247.0 21.0 1.0 1.0
-1.1597962 -3.5255742 -0.93948132 -0.9920469522476196 0.010590270161628723 0.12542204558849335 255.0 22.0 1.0 1.0
-1.1193469 -3.5264139 -0.93658835 -0.9757542014122009 0.18818753957748413 0.11175528168678284 255.0 22.0 1.0 1.0
-1.1657008 -3.5357161 -0.84026349 -0.9858483672142029 -0.016171032562851906 0.1668580323457718 255.0 23.0 1.0 1.0
-1.131032 -3.5551393 -0.84209013 -0.9636086225509644 0.23271755874156952 0.13153307139873505 255.0 23.0 1.0 1.0
-1.1713802 -3.5471942 -0.74225914 -0.991578221321106 -0.0072637032717466354 0.1293049305677414 255.0 24.0 1.0 1.0
-1.1330332 -3.5555058 -0.74153733 -0.9747505784034729 0.17328821122646332 0.14082790911197662 255.0 24.0 1.0 1.0
-1.1806138 -3.5672851 -0.6459409 -0.9894753098487854 -0.04964403808116913 0.13591909408569336 255.0 25.0 1.0 1.0
-1.1372479 -3.5606573 -0.64260113 -0.9878787994384766 -0.04591032862663269 0.14828309416770935 255.0 25.0 1.0 1.0
-1.189702 -3.5889289 -0.54982501 -0.9909470677375793 -0.06493617594242096 0.11750393360853195 255.0 26.0 1.0 1.0
-1.1400409 -3.5634747 -0.54410684 -0.9902075529098511 -0.06272736191749573 0.12471713870763779 253.0 26.0 1.0 1.0
-1.1986184 -3.6120813 -0.45446852 -0.9927932620048523 -0.028711780905723572 0.11635008454322815 255.0 27.0 1.0 1.0
-1.1486613 -3.586596 -0.44976524 -0.9895615577697754 -0.07389897853136063 0.123721644282341 255.0 27.0 1.0 1.0
-1.2011491 -3.6138668 -0.3559314 -0.9893470406532288 -0.009128515608608723 0.14528952538967133 255.0 28.0 1.0 1.0
-1.1559896 -3.6034791 -0.3537471 -0.9766029119491577 -0.10542405396699905 0.18743647634983063 255.0 28.0 1.0 1.0
-1.201615 -3.6136429 -0.25770244 -0.9895618557929993 0.006582451518625021 0.14395852386951447 255.0 29.0 1.0 1.0
-1.1600999 -3.6146147 -0.25694785 -0.9829905033111572 -0.11269918084144592 0.14501221477985382 255.0 29.0 1.0 1.0
-1.2075872 -3.6299577 -0.16102649 -0.9941362142562866 0.007679473143070936 0.10786215215921402 255.0 30.0 1.0 1.0
-1.1671163 -3.6347818 -0.16074811 -0.9867721796035767 -0.10304578393697739 0.12514914572238922 255.0 30.0 1.0 1.0
-1.2052025 -3.6211591 -0.063557863 -0.9719210863113403 0.20000062882900238 0.12397238612174988 255.0 31.0 1.0 1.0
-1.174611 -3.6564152 -0.064028986 -0.9930464625358582 9.470438817515969e-05 0.11772338300943375 255.0 31.0 1.0 1.0
-1.032765 -1.875122 0.020465452 0.011639002710580826 0.9980081915855408 -0.06200065836310387 255.0 32.0 1.0 1.0
-1.0301831 -1.9175246 0.020754632 0.03617601469159126 0.9931743144989014 -0.1108877882361412 255.0 32.0 1.0 1.0
-1.0347157 -1.8772669 0.074981421 0.01887710951268673 0.9987953305244446 -0.045294083654880524 255.0 33.0 1.0 1.0
-1.032112 -1.9196678 0.076187059 0.011636600829660892 0.9978022575378418 -0.06523220241069794 255.0 33.0 1.0 1.0
-1.027944 -1.8643892 0.12873307 -0.00021218745678197592 0.9992748498916626 -0.038073159754276276 255.0 34.0 1.0 1.0
-1.0140971 -1.8855891 0.12941998 -0.030360082164406776 0.9966402649879456 -0.07606881856918335 255.0 34.0 1.0 1.0
-1.0317543 -1.8714432 0.18391111 -0.03453199937939644 0.9966045618057251 -0.07474582642316818 255.0 35.0 1.0 1.0
-1.0310527 -1.9172257 0.18729031 0.012627704069018364 0.9962747693061829 -0.08530603349208832 255.0 35.0 1.0 1.0
-1.0085934 -1.8281533 0.23349366 -0.015928711742162704 0.9994587302207947 -0.02878389321267605 255.0 36.0 1.0 1.0
-1.0101963 -1.8771017 0.23833419 -0.0208453182131052 0.9986125230789185 -0.04835712909698486 255.0 36.0 1.0 1.0
-1.0212799 -1.8497432 0.2914356 -0.02085285633802414 0.9989737272262573 -0.04020819813013077 255.0 37.0 1.0 1.0
-1.0150756 -1.8847443 0.29522046 -0.0005490105831995606 0.9984687566757202 -0.05531616508960724 255.0 37.0 1.0 1.0
-1.0163336 -1.8386865 0.34470317 -0.02378948964178562 0.999539852142334 -0.01881745271384716 255.0 38.0 1.0 1.0
-1.006454 -1.8665907 0.34790483 -0.0009612962021492422 0.9994040727615356 -0.03450537100434303 255.0 38.0 1.0 1.0
-1.0126061 -1.8298559 0.39854544 -0.02407652698457241 0.9985029101371765 -0.04911461099982262 255.0 39.0 1.0 1.0
-1.0083921 -1.8680087 0.40449756 -0.015404974110424519 0.99871826171875 -0.04821285232901573 255.0 39.0 1.0 1.0
-1.0116358 -1.826764 0.45418516 -0.024081356823444366 0.9987032413482666 -0.044854361563920975 255.0 40.0 1.0 1.0
-0.9999426 -1.8510065 0.45755255 -0.025830771774053574 0.9992648363113403 -0.028328733518719673 255.0 40.0 1.0 1.0
-0.99543953 -1.7947804 0.50264513 -0.016326263546943665 0.9985305666923523 -0.051673524081707 255.0 41.0 1.0 1.0
-0.99330336 -1.8358479 0.5111745 -0.016326263546943665 0.9985305666923523 -0.051673524081707 255.0 41.0 1.0 1.0
-0.98995161 -1.7821381 0.55568331 -0.09391804784536362 0.9910883903503418 -0.09446285665035248 255.0 42.0 1.0 1.0
-0.99706256 -1.8398918 0.57037687 -0.012992972508072853 0.9847408533096313 -0.17354151606559753 255.0 42.0 1.0 1.0
-0.98582083 -1.7712476 0.61038172 -0.09329730272293091 0.9845377206802368 -0.14826002717018127 255.0 43.0 1.0 1.0
-0.96543914 -1.7781098 0.60919935 -0.24994882941246033 0.9392174482345581 -0.2353641390800476 255.0 43.0 1.0 1.0
-0.99020433 -1.7756385 0.67119855 -0.12823325395584106 0.9912353754043579 0.03176069259643555 255.0 44.0 1.0 1.0
-0.97887689 -1.7992531 0.67618603 -0.23570135235786438 0.9703593850135803 0.05336243659257889 255.0 44.0 1.0 1.0
-0.98625934 -1.7651355 0.72786349 -0.0493537038564682 0.9982826113700867 -0.031559478491544724 255.0 45.0 1.0 1.0
-0.98400468 -1.8050966 0.74003136 -0.06855344027280807 0.9974933862686157 0.017528697848320007 255.0 45.0 1.0 1.0
-0.99462199 -1.7758924 0.79442245 0.01755455508828163 0.9981064796447754 -0.05895046517252922 255.0 46.0 1.0 1.0
-0.97959864 -1.7927513 0.79730314 -0.06844526529312134 0.9959192872047424 -0.05882128328084946 255.0 46.0 1.0 1.0
-0.98157454 -1.7492446 0.84609169 -0.013062607496976852 0.9971085786819458 -0.07485833764076233 255.0 47.0 1.0 1.0
-0.97565824 -1.7820501 0.85695124 0.006200524978339672 0.9987514019012451 -0.049571309238672256 255.0 47.0 1.0 1.0
-0.95792145 -2.9437554 1.4087374 -0.010842634364962578 0.9993868470191956 -0.03329272195696831 244.0 48.0 1.0 1.0
-0.95327163 -3.0369949 1.4484681 0.04725590720772743 0.9932932257652283 -0.1055254191160202 244.0 48.0 1.0 1.0
-0.95115095 -2.9338996 1.5079581 -0.019761448726058006 0.9908066391944885 -0.1338341236114502 255.0 49.0 1.0 1.0
-0.92578799 -2.9608614 1.5166974 -0.14124956727027893 0.7048551440238953 -0.6951459646224976 255.0 49.0 1.0 1.0
-0.90356052 -2.7993481 1.5417409 -0.0428030863404274 0.6521599292755127 -0.7568719983100891 255.0 50.0 1.0 1.0
-0.87213784 -2.8019094 1.5379776 -0.1410871148109436 0.012373094446957111 -0.9899198412895203 255.0 50.0 1.0 1.0
-0.85111427 -2.6517029 1.5619843 -0.32525941729545593 0.1299489438533783 -0.9366533756256104 253.0 51.0 1.0 1.0
-0.82231623 -2.6571558 1.5599813 -0.16740794479846954 -0.1127544492483139 -0.9794186353683472 255.0 51.0 1.0 1.0
-0.79771763 -2.4979253 1.5714626 -0.085586778819561 -0.12859050929546356 -0.9879977703094482 253.0 52.0 1.0 1.0
-0.77459389 -2.5159941 1.5775932 -0.12206068634986877 -0.06274842470884323 -0.990537166595459 255.0 52.0 1.0 1.0
-0.75144792 -2.367878 1.5890449 -0.14103983342647552 -0.012942473404109478 -0.9899193644523621 255.0 53.0 1.0 1.0
-0.72764462 -2.3788567 1.5911616 -0.09116683155298233 -0.03368920460343361 -0.9952656030654907 255.0 53.0 1.0 1.0
-0.70589745 -2.2412062 1.6038858 -0.07771135121583939 -0.07139889150857925 -0.9944159388542175 255.0 54.0 1.0 1.0
-0.67955768 -2.2390141 1.597077 -0.08080826699733734 -0.07449881732463837 -0.9939416646957397 255.0 54.0 1.0 1.0
-0.66103446 -2.1148136 1.6134213 -0.09236972033977509 -0.12440289556980133 -0.9879229664802551 255.0 55.0 1.0 1.0
-0.63890004 -2.1216385 1.6133853 -0.07585639506578445 -0.10799756646156311 -0.9912528395652771 255.0 55.0 1.0 1.0
-0.62146044 -2.0072389 1.6324407 -0.14812728762626648 0.11454156041145325 -0.982312798500061 255.0 56.0 1.0 1.0
-0.59684336 -2.001555 1.6225816 -0.30041128396987915 0.03771984204649925 -0.9530636668205261 253.0 56.0 1.0 1.0
-0.55376482 -1.8082259 1.5682567 -0.15547063946723938 -0.7983856201171875 -0.5817295908927917 241.0 57.0 1.0 1.0
-0.53484744 -1.8139434 1.5682261 -0.12392893433570862 -0.0101960813626647 -0.9922388195991516 247.0 57.0 1.0 1.0
-0.52263409 -1.7254277 1.5973834 -0.1652298867702484 0.043769557029008865 -0.9852834343910217 255.0 58.0 1.0 1.0
-0.50290942 -1.7250812 1.5920432 -0.16389909386634827 0.13389790058135986 -0.9773476719856262 253.0 58.0 1.0 1.0
-0.48281562 -1.615924 1.5998719 -0.11888148635625839 0.1370762586593628 -0.983400821685791 250.0 59.0 1.0 1.0
-0.46671742 -1.6236957 1.6026003 -0.132085382938385 0.13374537229537964 -0.9821739792823792 253.0 59.0 1.0 1.0
-0.44412637 -1.5120586 1.6038657 -0.07978098839521408 -0.03143548220396042 -0.9963166117668152 255.0 60.0 1.0 1.0
-0.42831624 -1.516645 1.60384 -0.09878290444612503 -0.050558339804410934 -0.9938238263130188 255.0 60.0 1.0 1.0
-0.40910852 -1.4209704 1.6187369 -0.1377514898777008 -0.04548970237374306 -0.9894217252731323 255.0 61.0 1.0 1.0
-0.39497277 -1.4277918 1.6216694 -0.10711803287267685 -0.04566328600049019 -0.9931971430778503 255.0 61.0 1.0 1.0
-0.37535775 -1.3332783 1.6369749 -0.10704723745584488 -0.06537844985723495 -0.9921021461486816 255.0 62.0 1.0 1.0
-0.35872805 -1.3271945 1.624724 -0.15528182685375214 -0.06716948747634888 -0.9855839610099792 255.0 62.0 1.0 1.0
-0.33770519 -1.2340741 1.640231 -0.16793085634708405 -0.1394788771867752 -0.9758815765380859 255.0 63.0 1.0 1.0
-0.32855532 -1.2518119 1.6591552 -0.1690288484096527 -0.08118057250976562 -0.9822621941566467 255.0 63.0 1.0 1.0
-0.44285831 -0.68632352 -1.0644076 -0.8467418551445007 0.5213602185249329 0.10588563233613968 255.0 0.0 1.0 1.0
-0.43699893 -0.69294256 -1.0676004 -0.8467418551445007 0.5213602185249329 0.10588563233613968 255.0 0.0 1.0 1.0
-0.44182491 -0.69516617 -0.98743302 -0.8797391653060913 0.4717695116996765 0.05909726023674011 255.0 1.0 1.0 1.0
-0.43727666 -0.7040565 -0.99360543 -0.8797391653060913 0.4717695116996765 0.05909726023674011 255.0 1.0 1.0 1.0
-0.42785165 -0.68149209 -0.89300287 -0.0922936424612999 -0.9909875392913818 -0.09708552062511444 255.0 2.0 1.0 1.0
-0.43333903 -0.70633906 -0.91984731 -0.38864368200302124 0.9182494282722473 -0.07598729431629181 255.0 2.0 1.0 1.0
-0.42259046 -0.68059498 -0.8253662 0.002927933819591999 -0.4636085033416748 -0.8860353231430054 253.0 3.0 1.0 1.0
-0.42416021 -0.69917518 -0.84266245 0.002927933819591999 -0.4636085033416748 -0.8860353231430054 255.0 3.0 1.0 1.0
-0.42129326 -0.68470997 -0.77171087 0.002927933819591999 -0.4636085033416748 -0.8860353231430054 253.0 4.0 1.0 1.0
-0.41266736 -0.68659967 -0.76894075 0.002927933819591999 -0.4636085033416748 -0.8860353231430054 241.0 4.0 1.0 1.0
-0.44643936 -0.73116404 -0.76799792 -0.045307692140340805 0.24004241824150085 0.9697045087814331 253.0 5.0 1.0 1.0
-0.4433887 -0.743415 -0.77605265 -0.03102373145520687 -0.07430832087993622 -0.9967526197433472 255.0 5.0 1.0 1.0
-1.0166442 -1.6727549 -1.6477647 -0.07950108498334885 0.04918396472930908 0.9956206679344177 255.0 6.0 1.0 1.0
-1.0038135 -1.69115 -1.6555346 -0.07950108498334885 0.04918396472930908 0.9956206679344177 255.0 6.0 1.0 1.0
-1.0846183 -1.795184 -1.6535196 0.07824119180440903 0.8335298895835876 0.5469059944152832 255.0 7.0 1.0 1.0
-1.0753946 -1.8226098 -1.6684362 0.1757296621799469 0.24785248935222626 0.9527267217636108 255.0 7.0 1.0 1.0
-1.1164778 -1.8575597 -1.601756 0.029994724318385124 0.9981700778007507 0.05250473693013191 255.0 8.0 1.0 1.0
-1.1230785 -1.9134305 -1.6399013 -0.001529276487417519 0.9868083000183105 0.16188590228557587 255.0 8.0 1.0 1.0
-1.1299646 -1.8898753 -1.5260723 -0.00494849169626832 0.999660849571228 -0.025564607232809067 255.0 9.0 1.0 1.0
-1.1250894 -1.9270833 -1.5466528 -0.004699708893895149 0.9999874234199524 0.0017224422190338373 255.0 9.0 1.0 1.0
-1.1206217 -1.8811979 -1.422508 -0.0019478051690384746 0.9993506669998169 -0.03597785905003548 255.0 10.0 1.0 1.0
-1.1194736 -1.9246451 -1.4465625 0.005269442219287157 0.9989526867866516 -0.04545154795050621 255.0 10.0 1.0 1.0
-1.1224186 -1.8919138 -1.3390043 0.006867623887956142 0.9971413016319275 -0.07524679601192474 255.0 11.0 1.0 1.0
-1.1094533 -1.9153415 -1.3473738 -0.018452543765306473 0.9994591474533081 -0.02722158282995224 255.0 11.0 1.0 1.0
-1.1051507 -1.8697388 -1.2368048 0.00862240418791771 0.9981715679168701 -0.05982739478349686 255.0 12.0 1.0 1.0
-1.1168517 -1.9353005 -1.2725546 0.021734626963734627 0.9993059635162354 -0.03025224804878235 255.0 12.0 1.0 1.0
-1.1148072 -1.8915111 -1.1691982 -0.018344290554523468 0.9997400045394897 -0.013547852635383606 255.0 13.0 1.0 1.0
-1.110849 -1.9305599 -1.1861951 0.020085599273443222 0.9992485046386719 -0.03314996883273125 255.0 13.0 1.0 1.0
-1.0962493 -1.8647223 -1.0752392 -0.036197081208229065 0.9985391497612 -0.04011642187833786 255.0 14.0 1.0 1.0
-1.1034764 -1.922617 -1.1020532 0.0027978403959423304 0.9992549419403076 -0.03849518671631813 255.0 14.0 1.0 1.0
-1.1033533 -1.8814681 -1.0101488 -0.01608971133828163 0.9978401064872742 -0.06368827819824219 255.0 15.0 1.0 1.0
-1.0998846 -1.921211 -1.0253536 0.0519782155752182 0.998095691204071 -0.03321484848856926 255.0 15.0 1.0 1.0
-1.1860832 -3.4284215 -1.567587 -0.9800465703010559 0.09739567339420319 0.17327119410037994 250.0 16.0 1.0 1.0
-1.1455142 -3.4266922 -1.5612857 -0.9841336011886597 0.08144190162420273 0.15763382613658905 247.0 16.0 1.0 1.0
-1.1908782 -3.4312029 -1.4536077 -0.9834657907485962 -0.04993182048201561 0.1740742325782776 255.0 17.0 1.0 1.0
-1.1572992 -3.4504886 -1.4566442 -0.9818046689033508 0.007462179753929377 0.1897466778755188 255.0 17.0 1.0 1.0
-1.2086626 -3.4692812 -1.3562847 -0.9865527749061584 -0.045137323439121246 0.1570868343114853 255.0 18.0 1.0 1.0
-1.1711247 -3.4781587 -1.3549547 -0.9924629926681519 0.015380374155938625 0.12157594412565231 255.0 18.0 1.0 1.0
-1.2174456 -3.4832644 -1.2511406 -0.9934578537940979 -0.028186224400997162 0.11066646873950958 255.0 19.0 1.0 1.0
-1.1700425 -3.463501 -1.2396126 -0.9923050403594971 -0.02193128876388073 0.12185860425233841 250.0 19.0 1.0 1.0
-1.2195017 -3.4799068 -1.1423998 -0.9860613942146301 0.031526222825050354 0.16336792707443237 255.0 20.0 1.0 1.0
-1.1830481 -3.4924564 -1.1424582 -0.9816000461578369 -0.08108112961053848 0.17287936806678772 255.0 20.0 1.0 1.0
-1.2306435 -3.5023897 -1.0442631 -0.9892790913581848 0.03910592570900917 0.14070391654968262 255.0 21.0 1.0 1.0
-1.1877594 -3.4968314 -1.0388923 -0.9906153678894043 -0.04742521420121193 0.1281874179840088 255.0 21.0 1.0 1.0
-1.2358282 -3.5078449 -0.94134599 -0.9881891012191772 0.032513100653886795 0.14974983036518097 255.0 22.0 1.0 1.0
-1.2028335 -3.5315766 -0.9443574 -0.9857467412948608 -0.07238045334815979 0.15186969935894012 255.0 22.0 1.0 1.0
-1.2419667 -3.5179012 -0.84192586 -0.9902329444885254 -0.012819656170904636 0.13883259892463684 255.0 23.0 1.0 1.0
-1.2025924 -3.5233052 -0.84021866 -0.9827351570129395 -0.0755215659737587 0.16890259087085724 255.0 23.0 1.0 1.0
-1.2531396 -3.544086 -0.74684638 -0.9922810196876526 0.020836586132645607 0.12224600464105606 255.0 24.0 1.0 1.0
-1.209663 -3.5384331 -0.74299604 -0.9840185046195984 -0.06969045847654343 0.16386231780052185 255.0 24.0 1.0 1.0
-1.2641635 -3.5677924 -0.65059555 -0.9585466980934143 0.26403284072875977 0.1071203351020813 255.0 25.0 1.0 1.0
-1.2178383 -3.5547123 -0.6458956 -0.9870867133140564 0.045038070529699326 0.1537250131368637 255.0 25.0 1.0 1.0
-1.2684568 -3.5744212 -0.55145282 -0.9524462819099426 0.28571200370788574 0.10589952766895294 255.0 26.0 1.0 1.0
-1.2271534 -3.5762582 -0.54977942 -0.9818817377090454 0.11061148345470428 0.1538613885641098 255.0 26.0 1.0 1.0
-1.2725544 -3.5824461 -0.45388615 -0.962682843208313 0.2546830177307129 0.09153319150209427 250.0 27.0 1.0 1.0
-1.2285681 -3.5767782 -0.45156455 -0.9848999381065369 0.12086667865514755 0.12394893914461136 255.0 27.0 1.0 1.0
-1.2777895 -3.5916686 -0.35619938 -0.9437966346740723 0.3044673800468445 0.12863756716251373 255.0 28.0 1.0 1.0
-1.2375679 -3.5973051 -0.35551134 -0.9779872298240662 0.15137386322021484 0.1436212807893753 255.0 28.0 1.0 1.0
-1.28495 -3.6102362 -0.25922719 -0.9361431002616882 0.3262403607368469 0.13116170465946198 253.0 29.0 1.0 1.0
-1.2458265 -3.6197059 -0.25901589 -0.9815882444381714 0.14120104908943176 0.12863394618034363 255.0 29.0 1.0 1.0
-1.296644 -3.6415071 -0.16261815 -0.9396681189537048 0.32543256878852844 0.10543984919786453 255.0 30.0 1.0 1.0
-1.2415689 -3.6057534 -0.16047066 -0.9853929877281189 0.1375606209039688 0.10038817673921585 255.0 30.0 1.0 1.0
-1.2967778 -3.6403177 -0.064268589 -0.9261736869812012 0.3605400025844574 0.11051341891288757 255.0 31.0 1.0 1.0
-1.2573352 -3.6499054 -0.064261496 -0.9419596195220947 0.321043998003006 0.09819792211055756 255.0 31.0 1.0 1.0
-1.0195657 -1.76308 0.019578794 -0.0019350653747096658 0.9989105463027954 -0.04662402719259262 255.0 32.0 1.0 1.0
-1.0286617 -1.8223948 0.020049436 0.019803371280431747 0.9982592463493347 -0.05555446445941925 255.0 32.0 1.0 1.0
-1.0215626 -1.7652472 0.071447164 -0.029699046164751053 0.9978558421134949 -0.05832449346780777 255.0 33.0 1.0 1.0
-1.0286667 -1.8210696 0.073205926 -0.03324707970023155 0.9984210729598999 -0.04527711123228073 255.0 33.0 1.0 1.0
-1.0285959 -1.7768054 0.12422687 -0.04296521469950676 0.998318612575531 -0.0389084666967392 255.0 34.0 1.0 1.0
-1.0257195 -1.8152696 0.12611246 -0.035950709134340286 0.9986289739608765 -0.038048550486564636 255.0 34.0 1.0 1.0
-1.0106342 -1.7459722 0.17371826 -0.018227938562631607 0.9994730353355408 -0.026860088109970093 255.0 35.0 1.0 1.0
-1.0100144 -1.7876683 0.17675982 -0.018230602145195007 0.9996191263198853 -0.02071855403482914 255.0 35.0 1.0 1.0
-1.0126314 -1.7481524 0.22600432 -0.02289687469601631 0.9982016682624817 -0.055401068180799484 255.0 36.0 1.0 1.0
-1.0217503 -1.8070813 0.23217633 -0.02884175442159176 0.9988314509391785 -0.03877892717719078 255.0 36.0 1.0 1.0
-1.0178981 -1.7559605 0.28002775 -0.007836217060685158 0.9998652338981628 -0.014423674903810024 255.0 37.0 1.0 1.0
-1.0053673 -1.7768606 0.28163466 -0.02870258316397667 0.9987794160842896 -0.040200375020504 255.0 37.0 1.0 1.0
-1.0128479 -1.7453058 0.3311668 -0.023356322199106216 0.9970831274986267 -0.0726616382598877 255.0 38.0 1.0 1.0
-1.006256 -1.7764112 0.33501738 -0.036304835230112076 0.9966976642608643 -0.0726335421204567 255.0 38.0 1.0 1.0
-1.0110687 -1.7402952 0.38362741 0.0006249056896194816 0.9996703863143921 -0.02566697634756565 255.0 39.0 1.0 1.0
-1.0103092 -1.7815336 0.39033008 -0.02843470685184002 0.9981648921966553 -0.05346430838108063 255.0 39.0 1.0 1.0
-0.99448293 -1.7105719 0.4304392 -0.027844609692692757 0.9989138841629028 -0.037359096109867096 255.0 40.0 1.0 1.0
-1.0016805 -1.7650634 0.44145444 -0.029714152216911316 0.9987884163856506 -0.0392274409532547 255.0 40.0 1.0 1.0
-1.0072565 -1.7298763 0.49031985 -0.010617263615131378 0.9981253743171692 -0.06027446314692497 255.0 41.0 1.0 1.0
-1.0083623 -1.7740908 0.49980268 -0.031670667231082916 0.997503399848938 -0.06311679631471634 255.0 41.0 1.0 1.0
-1.0055416 -1.7243232 0.54415292 -0.02108280174434185 0.9991952776908875 -0.034123316407203674 255.0 42.0 1.0 1.0
-1.0027751 -1.7615772 0.55253875 -0.03442740440368652 0.9964555501937866 -0.07675253599882126 255.0 42.0 1.0 1.0
-0.99357659 -1.7005918 0.59311974 -0.04114460200071335 0.9986491203308105 -0.03173229470849037 255.0 43.0 1.0 1.0
-0.99666607 -1.7474844 0.60577887 -0.04114460200071335 0.9986491203308105 -0.03173229470849037 255.0 43.0 1.0 1.0
-0.99248773 -1.6954954 0.64865977 -0.011514872312545776 0.9991585612297058 -0.03936704620718956 255.0 44.0 1.0 1.0
-0.99737394 -1.7453524 0.66368347 -0.07157774269580841 0.9974244832992554 -0.004600034095346928 255.0 44.0 1.0 1.0
-0.97334027 -1.6596876 0.69266289 -0.01583869569003582 0.998511791229248 -0.05218503624200821 255.0 45.0 1.0 1.0
-0.99153501 -1.7318165 0.71838671 -0.015837693586945534 0.9984487295150757 -0.053379423916339874 255.0 45.0 1.0 1.0
-0.98422754 -1.6743634 0.75808382 -0.003831258974969387 0.9979170560836792 -0.06439508497714996 255.0 46.0 1.0 1.0
-0.98340446 -1.7136527 0.77115214 -0.01750222221016884 0.9965705871582031 -0.080874964594841 255.0 46.0 1.0 1.0
-0.97295111 -1.6520849 0.80879509 -0.002254109364002943 0.9961857199668884 -0.08722905069589615 255.0 47.0 1.0 1.0
-0.98507839 -1.7132785 0.83365732 -0.009706269018352032 0.9981244802474976 -0.06044294685125351 255.0 47.0 1.0 1.0
-0.96170497 -2.757998 1.3292522 -0.010759551078081131 0.9985624551773071 -0.05250762775540352 250.0 48.0 1.0 1.0
-0.95724976 -2.8403697 1.3640165 0.015749383717775345 0.9982969760894775 -0.05617096275091171 247.0 48.0 1.0 1.0
-0.96037912 -2.763941 1.4306902 -0.026383791118860245 0.9974562525749207 -0.06621874123811722 255.0 49.0 1.0 1.0
-0.95203227 -2.8351667 1.4622869 0.00817006267607212 0.999428391456604 -0.032806288450956345 250.0 49.0 1.0 1.0
-0.94683701 -2.7362213 1.5176653 -0.026360882446169853 0.9965901374816895 -0.07818584144115448 255.0 50.0 1.0 1.0
-0.93953627 -2.8098276 1.5529228 -0.04550018534064293 0.6520821452140808 -0.7567816972732544 255.0 50.0 1.0 1.0
-0.90751624 -2.636517 1.5640178 -0.005258309654891491 0.7998160719871521 -0.6002219915390015 253.0 51.0 1.0 1.0
-0.87770194 -2.6392744 1.5600574 -0.1901581734418869 0.11578548699617386 -0.9749017953872681 253.0 51.0 1.0 1.0
-0.85867405 -2.506551 1.5879954 -0.5203198790550232 0.49645552039146423 -0.6948375105857849 255.0 52.0 1.0 1.0
-0.82703471 -2.4991424 1.5776646 -0.0931541845202446 -0.13608434796333313 -0.9863079190254211 250.0 52.0 1.0 1.0
-0.79861796 -2.3451667 1.5847968 -0.17344701290130615 -0.11306122690439224 -0.9783318638801575 255.0 53.0 1.0 1.0
-0.78354287 -2.3822153 1.6041715 -0.14090874791145325 -0.045001666992902756 -0.9889991879463196 255.0 53.0 1.0 1.0
-0.75789165 -2.241493 1.6152332 -0.14273138344287872 -0.07041387259960175 -0.9872535467147827 255.0 54.0 1.0 1.0
-0.72929639 -2.2336297 1.6039106 -0.07790999859571457 -0.0021689501591026783 -0.9969580173492432 255.0 54.0 1.0 1.0
-0.70818663 -2.1096179 1.6205499 -0.1379721462726593 -0.04896530136466026 -0.9892250299453735 255.0 55.0 1.0 1.0
-0.68909556 -2.1261597 1.6275847 -0.09302367269992828 -0.038555026054382324 -0.9949171543121338 255.0 55.0 1.0 1.0
-0.6612854 -1.9877135 1.6275827 -0.12762092053890228 0.0042150202207267284 -0.9918140769004822 253.0 56.0 1.0 1.0
-0.64338022 -2.0035646 1.6349183 -0.14128747582435608 -0.009703184477984905 -0.9899210333824158 255.0 56.0 1.0 1.0
-0.62225443 -1.8896618 1.6500995 -0.14207077026367188 -0.017296161502599716 -0.9897053837776184 253.0 57.0 1.0 1.0
-0.57823259 -1.8198596 1.583611 -0.05135246738791466 -0.017450349405407906 -0.9985281229019165 217.0 57.0 1.0 1.0
-0.55486232 -1.7026505 1.5868069 -0.0069146594032645226 -0.7259613275527954 -0.6877007484436035 238.0 58.0 1.0 1.0
-0.54333538 -1.7283592 1.6053668 -0.1652298867702484 0.043769557029008865 -0.9852834343910217 255.0 58.0 1.0 1.0
-0.52269214 -1.6246954 1.6192061 -0.11598361283540726 0.09613806754350662 -0.988587498664856 255.0 59.0 1.0 1.0
-0.50139809 -1.6162555 1.605399 -0.11525241285562515 0.14729413390159607 -0.982354998588562 255.0 59.0 1.0 1.0
-0.47984496 -1.5156934 1.618187 -0.0786130502820015 0.1732739359140396 -0.9817312359809875 255.0 60.0 1.0 1.0
-0.46235776 -1.5152977 1.6124486 -0.0786130502820015 0.1732739359140396 -0.9817312359809875 255.0 60.0 1.0 1.0
-0.43869659 -1.4120119 1.618773 -0.1436927765607834 0.00010027629468822852 -0.9896224141120911 253.0 61.0 1.0 1.0
-0.4247072 -1.4191276 1.6217059 -0.1436927765607834 0.00010027629468822852 -0.9896224141120911 255.0 61.0 1.0 1.0
-0.40386868 -1.3275125 1.6400653 -0.06521745026111603 -0.023317836225032806 -0.9975985884666443 255.0 62.0 1.0 1.0
-0.38708919 -1.3217866 1.6278145 -0.10704723745584488 -0.06537844985723495 -0.9921021461486816 255.0 62.0 1.0 1.0
-0.36339512 -1.2266511 1.6402612 -0.17069488763809204 -0.13738085329532623 -0.9756995439529419 255.0 63.0 1.0 1.0
-0.35259813 -1.2374918 1.6497134 -0.16793085634708405 -0.1394788771867752 -0.9758815765380859 255.0 63.0 1.0 1.0
-0.44883767 -0.66488713 -1.0453113 -0.991978645324707 0.024303948506712914 0.12404757738113403 255.0 0.0 1.0 1.0
-0.44458482 -0.67356294 -1.0516851 -0.8467418551445007 0.5213602185249329 0.10588563233613968 255.0 0.0 1.0 1.0
-0.45757717 -0.68790412 -0.99050629 0.13190039992332458 0.9540721774101257 0.2689768373966217 255.0 1.0 1.0 1.0
-0.44063172 -0.67767978 -0.96895325 0.13190039992332458 0.9540721774101257 0.2689768373966217 255.0 1.0 1.0 1.0
-0.42720601 -0.6501503 -0.86318183 0.002927933819591999 -0.4636085033416748 -0.8860353231430054 255.0 2.0 1.0 1.0
-0.43199924 -0.67248541 -0.88704365 -0.0922936424612999 -0.9909875392913818 -0.09708552062511444 255.0 2.0 1.0 1.0
-0.41082057 -0.63211888 -0.77638578 0.002927933819591999 -0.4636085033416748 -0.8860353231430054 244.0 3.0 1.0 1.0
-0.41618064 -0.65507323 -0.79944241 0.002927933819591999 -0.4636085033416748 -0.8860353231430054 250.0 3.0 1.0 1.0
-0.42291459 -0.65644509 -0.74945527 -0.03102373145520687 -0.07430832087993622 -0.9967526197433472 244.0 4.0 1.0 1.0
-0.42836994 -0.68024969 -0.77171439 -0.15042155981063843 -0.9252485036849976 -0.34826505184173584 247.0 4.0 1.0 1.0
-0.46153057 -0.72166759 -0.76798934 -0.045307692140340805 0.24004241824150085 0.9697045087814331 253.0 5.0 1.0 1.0
-0.45873681 -0.73398012 -0.77604365 -0.045307692140340805 0.24004241824150085 0.9697045087814331 255.0 5.0 1.0 1.0
-0.44148177 -0.69533491 -0.69023991 -0.07950108498334885 0.04918396472930908 0.9956206679344177 24.0 6.0 1.0 1.0
-0.44554579 -0.71805131 -0.70831716 -0.07950108498334885 0.04918396472930908 0.9956206679344177 20.0 6.0 1.0 1.0
-1.1151154 -1.761525 -1.6435577 0.1149507388472557 0.9474755525588989 0.2984565794467926 255.0 7.0 1.0 1.0
-1.1082321 -1.7917355 -1.660954 0.09155211597681046 0.920580267906189 0.37967103719711304 255.0 7.0 1.0 1.0
-1.120702 -1.779464 -1.554075 0.0010755655821412802 0.9997233152389526 0.0234956294298172 255.0 8.0 1.0 1.0
-1.1189237 -1.8184187 -1.5779248 0.0010755655821412802 0.9997233152389526 0.0234956294298172 255.0 8.0 1.0 1.0
-1.1220118 -1.7907333 -1.4643857 -0.006710343528538942 0.9996088147163391 -0.02715265564620495 255.0 9.0 1.0 1.0
-1.1238569 -1.8359464 -1.4918133 0.00871187075972557 0.9984816908836365 -0.054392024874687195 255.0 9.0 1.0 1.0
-1.1152108 -1.7863246 -1.3678708 0.0003870833315886557 0.9991037845611572 -0.0423259511590004 255.0 10.0 1.0 1.0
-1.1244544 -1.8436253 -1.4028423 0.0047034332528710365 0.9982360601425171 -0.05918433144688606 255.0 10.0 1.0 1.0
-1.1129221 -1.7897935 -1.2826802 -0.02164597064256668 0.9986492395401001 -0.04723542556166649 255.0 11.0 1.0 1.0
-1.1172445 -1.8392286 -1.309809 -0.014848888851702213 0.999090313911438 -0.039975859224796295 255.0 11.0 1.0 1.0
-1.1091318 -1.7901493 -1.1990638 -0.00855047907680273 0.9986173510551453 -0.05186767503619194 255.0 12.0 1.0 1.0
-1.1119874 -1.837273 -1.2229043 -0.0182744599878788 0.9968445897102356 -0.07724639028310776 255.0 12.0 1.0 1.0
-1.1039119 -1.7867824 -1.1182628 -0.009173196740448475 0.9983818531036377 -0.0561220608651638 255.0 13.0 1.0 1.0
-1.1107488 -1.840482 -1.144682 -0.00368528557009995 0.9992544054985046 -0.03843265399336815 255.0 13.0 1.0 1.0
-1.1048437 -1.7926506 -1.0466323 0.0036094756796956062 0.9979043006896973 -0.06460599601268768 255.0 14.0 1.0 1.0
-1.0934591 -1.816354 -1.053803 0.00893433764576912 0.9996225833892822 -0.025977853685617447 255.0 14.0 1.0 1.0
-1.0891199 -1.7714937 -0.96290362 -0.012121705338358879 0.9987391829490662 -0.04871303588151932 255.0 15.0 1.0 1.0
-1.0911323 -1.8169652 -0.98147738 0.01573834754526615 0.9984714984893799 -0.052981920540332794 255.0 15.0 1.0 1.0
-1.2689443 -3.4338589 -1.5817952 -0.9923006892204285 -0.042738620191812515 0.11624477803707123 255.0 16.0 1.0 1.0
-1.2267861 -3.429642 -1.573904 -0.9925407767295837 -0.0034786139149218798 0.12186351418495178 253.0 16.0 1.0 1.0
-1.2765425 -3.4438379 -1.4698907 -0.9858946204185486 0.04165200516581535 0.1621016412973404 255.0 17.0 1.0 1.0
-1.2329375 -3.4360168 -1.4610126 -0.9863588809967041 -0.0012287413701415062 0.1646047979593277 253.0 17.0 1.0 1.0
-1.2913914 -3.471369 -1.3672907 -0.9946026802062988 0.03849244862794876 0.09635265171527863 255.0 18.0 1.0 1.0
-1.2448484 -3.4564347 -1.3562428 -0.986784815788269 0.03959549963474274 0.15712377429008484 250.0 18.0 1.0 1.0
-1.2873466 -3.4499402 -1.2484665 -0.9887582659721375 0.03529595583677292 0.14529746770858765 253.0 19.0 1.0 1.0
-1.2602161 -3.4881315 -1.2575347 -0.9909992814064026 0.030727196484804153 0.13029266893863678 255.0 19.0 1.0 1.0
-1.3053757 -3.4894071 -1.1541648 -0.9564075469970703 0.26359328627586365 0.12571102380752563 255.0 20.0 1.0 1.0
-1.2571024 -3.4705334 -1.1435442 -0.9900741577148438 0.03856232389807701 0.1351524144411087 253.0 20.0 1.0 1.0
-1.314417 -3.5047073 -1.0528491 -0.9635648727416992 0.22985832393169403 0.13677668571472168 255.0 21.0 1.0 1.0
-1.2645499 -3.4820681 -1.0420492 -0.9876077771186829 0.06530601531267166 0.14270900189876556 253.0 21.0 1.0 1.0
-1.3157225 -3.4993575 -0.9461658 -0.9292898774147034 0.34439313411712646 0.1334676593542099 255.0 22.0 1.0 1.0
-1.2777319 -3.5092745 -0.94523984 -0.9776093363761902 0.11225154995918274 0.17798709869384766 255.0 22.0 1.0 1.0
-1.3317603 -3.5349419 -0.85242128 -0.9040229916572571 0.41061216592788696 0.11891243606805801 255.0 23.0 1.0 1.0
-1.2866955 -3.5266809 -0.84718168 -0.9757437705993652 0.18351463973522186 0.11935935914516449 255.0 23.0 1.0 1.0
-1.3463635 -3.5684576 -0.75769019 -0.8921825885772705 0.44338980317115784 0.08611438423395157 255.0 24.0 1.0 1.0
-1.3008919 -3.5602317 -0.75305831 -0.9726401567459106 0.20058397948741913 0.11720570176839828 255.0 24.0 1.0 1.0
-1.3454584 -3.5589778 -0.65389264 -0.894114077091217 0.4367287755012512 0.09913638979196548 255.0 25.0 1.0 1.0
-1.3000321 -3.5506434 -0.6498726 -0.899413526058197 0.42805397510528564 0.08846066147089005 255.0 25.0 1.0 1.0
-1.3471248 -3.5581818 -0.5530836 -0.9900339841842651 0.11719521135091782 0.07808871567249298 238.0 26.0 1.0 1.0
-1.3071158 -3.5646422 -0.55198729 -0.8925350308418274 0.4382769763469696 0.10627604275941849 255.0 26.0 1.0 1.0
-1.3429598 -3.5438702 -0.45235538 -0.967546284198761 0.24506177008152008 -0.06163553148508072 232.0 27.0 1.0 1.0
-1.3181515 -3.5912735 -0.45670015 -0.9094446897506714 0.40597614645957947 0.08996478468179703 253.0 27.0 1.0 1.0
-1.3511994 -3.5603948 -0.35572287 -0.9847236275672913 -0.04554112255573273 0.16806398332118988 255.0 28.0 1.0 1.0
-1.3207681 -3.5930209 -0.35765213 -0.8957456350326538 0.43727049231529236 0.08021405339241028 255.0 28.0 1.0 1.0
-1.3544936 -3.567605 -0.25803736 -0.992694079875946 -0.054033346474170685 0.10788314789533615 247.0 29.0 1.0 1.0
-1.3267596 -3.6077952 -0.25999874 -0.9147717952728271 0.3915473222732544 0.09941477328538895 244.0 29.0 1.0 1.0
-1.3583125 -3.5761864 -0.16081703 -0.9790335893630981 -0.10948566347360611 0.17177367210388184 253.0 30.0 1.0 1.0
-1.3249829 -3.6014524 -0.16138563 -0.9121760725975037 0.3926379680633545 0.11734664440155029 241.0 30.0 1.0 1.0
-1.3584083 -3.574964 -0.063484915 -0.8983756303787231 -0.41198796033859253 0.15227340161800385 235.0 31.0 1.0 1.0
-1.3181843 -3.5814764 -0.063408136 -0.9055771231651306 0.416277140378952 0.08150636404752731 229.0 31.0 1.0 1.0
-1.0353854 -1.7071415 0.019257968 -0.02370476722717285 0.9986061453819275 -0.04715891182422638 255.0 32.0 1.0 1.0
-1.0134201 -1.7110012 0.019159051 -0.029028475284576416 0.9988290071487427 -0.03870358318090439 255.0 32.0 1.0 1.0
-1.0395056 -1.7127061 0.070245698 -0.011286906898021698 0.9966338872909546 -0.08120083063840866 255.0 33.0 1.0 1.0
-1.0276879 -1.7338006 0.070630983 -0.03293810412287712 0.9973543882369995 -0.06480313837528229 255.0 33.0 1.0 1.0
-1.0322731 -1.7002729 0.1204332 -0.005323993042111397 0.9998230338096619 -0.018046585842967033 255.0 34.0 1.0 1.0
-1.0287368 -1.7350112 0.12208172 -0.01264198962599039 0.9993858933448792 -0.03267933428287506 255.0 34.0 1.0 1.0
-1.0261604 -1.6903509 0.17034253 -0.02332300879061222 0.9977872967720032 -0.062261488288640976 255.0 35.0 1.0 1.0
-1.010489 -1.7044237 0.17065661 -0.02332300879061222 0.9977872967720032 -0.062261488288640976 255.0 35.0 1.0 1.0
-1.0282451 -1.6925789 0.22161081 -0.005190157797187567 0.9981538653373718 -0.060513462871313095 255.0 36.0 1.0 1.0
-1.0206714 -1.7203338 0.22379857 -0.02289687469601631 0.9982016682624817 -0.055401068180799484 255.0 36.0 1.0 1.0
-1.0048708 -1.6530086 0.26697791 -0.00263223540969193 0.9980023503303528 -0.06312308460474014 255.0 37.0 1.0 1.0
-1.003763 -1.690681 0.27131325 -0.028245380148291588 0.9980733394622803 -0.05524369329214096 255.0 37.0 1.0 1.0
-1.0182468 -1.6731291 0.32150409 0.001223620492964983 0.9983672499656677 -0.057107746601104736 255.0 38.0 1.0 1.0
-0.99668133 -1.6769127 0.32018411 0.001223620492964983 0.9983672499656677 -0.057107746601104736 255.0 38.0 1.0 1.0
-1.0164794 -1.6683997 0.37244356 0.0032478156499564648 0.9993473887443542 -0.03597620129585266 255.0 39.0 1.0 1.0
-1.0151006 -1.7059501 0.37840059 0.0006247069104574621 0.9993524551391602 -0.035976383835077286 255.0 39.0 1.0 1.0
-0.99330878 -1.6292964 0.41518196 0.011244765482842922 0.9995012879371643 -0.029510442167520523 255.0 40.0 1.0 1.0
-0.99827206 -1.6765301 0.42450094 -0.0009105977369472384 0.9977014660835266 -0.06775674968957901 255.0 40.0 1.0 1.0
-1.0026108 -1.642083 0.47133142 -0.016739685088396072 0.9993626475334167 -0.03153010457754135 255.0 41.0 1.0 1.0
-1.0093241 -1.6925136 0.48271927 0.000862372457049787 0.9995298981666565 -0.03064768761396408 255.0 41.0 1.0 1.0
-1.0090741 -1.6501982 0.52735895 -0.018722573295235634 0.9992071986198425 -0.035133685916662216 255.0 42.0 1.0 1.0
-0.99971467 -1.6739204 0.5315398 -0.008947259746491909 0.9996381998062134 -0.025365421548485756 255.0 42.0 1.0 1.0
-0.99080384 -1.6173531 0.57123905 -0.0005993932718411088 0.9981429576873779 -0.06091136112809181 255.0 43.0 1.0 1.0
-1.0014348 -1.6736293 0.5873611 0.005755420308560133 0.9988088011741638 -0.048454560339450836 255.0 43.0 1.0 1.0
-0.99783391 -1.6257671 0.62987888 -0.015969034284353256 0.998850405216217 -0.045198313891887665 255.0 44.0 1.0 1.0
-1.0042737 -1.6751999 0.64490509 0.008239594288170338 0.9987358450889587 -0.04958721622824669 255.0 44.0 1.0 1.0
-0.98804647 -1.6068566 0.67914265 0.00342973368242383 0.9989905953407288 -0.04478788748383522 255.0 45.0 1.0 1.0
-0.9925611 -1.6525862 0.69402623 0.0028798494022339582 0.9989426136016846 -0.045885175466537476 255.0 45.0 1.0 1.0
-0.98178482 -1.5931057 0.73046982 -0.02983628585934639 0.9972149133682251 -0.068354032933712 255.0 46.0 1.0 1.0
-0.9824174 -1.6320167 0.74354053 0.029214199632406235 0.9972331523895264 -0.06835528463125229 255.0 46.0 1.0 1.0
-0.99173075 -1.6062287 0.79638338 -0.008991152979433537 0.9958087801933289 -0.0910162627696991 255.0 47.0 1.0 1.0
-0.97681135 -1.6196837 0.79791331 0.03927803784608841 0.9981750249862671 -0.045866459608078 255.0 47.0 1.0 1.0
-0.96196568 -2.583684 1.254727 -0.00019947809050790966 0.9989862442016602 -0.04501696303486824 255.0 48.0 1.0 1.0
-0.96331888 -2.6723864 1.2928127 0.010614062659442425 0.9988799095153809 -0.04611138999462128 253.0 48.0 1.0 1.0
-0.95667404 -2.5781128 1.3446194 -0.0250368881970644 0.9974446892738342 -0.06691211462020874 250.0 49.0 1.0 1.0
-0.96006167 -2.6725295 1.388528 -0.012357433326542377 0.9985758066177368 -0.05190082639455795 255.0 49.0 1.0 1.0
-0.95714772 -2.5894766 1.4471282 -0.01129931677132845 0.9977415800094604 -0.06621231138706207 255.0 50.0 1.0 1.0
-0.95391035 -2.6660693 1.4842488 0.01088609080761671 0.998710572719574 -0.049585793167352676 255.0 50.0 1.0 1.0
-0.94076407 -2.5579395 1.5288424 0.0034864316694438457 0.9960418343544006 -0.08881665766239166 250.0 51.0 1.0 1.0
-0.9350431 -2.6268089 1.5640471 0.0042486912570893764 0.8716791868209839 -0.4900584816932678 255.0 51.0 1.0 1.0
-0.90735894 -2.4782789 1.5818903 0.04155803099274635 0.7706316113471985 -0.6359243392944336 255.0 52.0 1.0 1.0
-0.88369709 -2.4941278 1.5859649 -0.5203198790550232 0.49645552039146423 -0.6948375105857849 255.0 52.0 1.0 1.0
-0.85785598 -2.3563328 1.6042759 -0.1437484174966812 0.037007708102464676 -0.9889220595359802 255.0 53.0 1.0 1.0
-0.82870108 -2.3524976 1.5956079 -0.16924583911895752 -0.11609581112861633 -0.978712260723114 255.0 53.0 1.0 1.0
-0.80571264 -2.2281556 1.6175508 -0.1336011290550232 -0.10156244784593582 -0.9858173727989197 255.0 54.0 1.0 1.0
-0.77910841 -2.2271385 1.6107426 -0.1601799875497818 -0.0881635993719101 -0.9831427335739136 255.0 54.0 1.0 1.0
-0.75541258 -2.103369 1.6276768 -0.06622278690338135 -0.06836474686861038 -0.995460033416748 255.0 55.0 1.0 1.0
-0.73233104 -2.10813 1.625285 -0.0896613672375679 -4.749163053929806e-05 -0.9959722757339478 255.0 55.0 1.0 1.0
-0.70586908 -1.98227 1.6350046 -0.15868109464645386 -0.02881654165685177 -0.9869092106819153 255.0 56.0 1.0 1.0
-0.68820578 -1.9985251 1.6423411 -0.1274295300245285 -0.05490817129611969 -0.9903265237808228 255.0 56.0 1.0 1.0
-0.66366196 -1.881938 1.6552613 -0.16198012232780457 0.03414661064743996 -0.9862030744552612 255.0 57.0 1.0 1.0
-0.63998985 -1.8771563 1.6450055 -0.16198012232780457 0.03414661064743996 -0.9862030744552612 250.0 57.0 1.0 1.0
-0.62092143 -1.7781117 1.6691759 -0.19043685495853424 0.21250925958156586 -0.9584224224090576 255.0 58.0 1.0 1.0
-0.57837462 -1.7136892 1.602756 0.005982174538075924 0.21404223144054413 -0.9768061637878418 235.0 58.0 1.0 1.0
-0.54611176 -1.5831728 1.5889302 -0.052215032279491425 -0.886866569519043 -0.4590657353401184 238.0 59.0 1.0 1.0
-0.53597414 -1.6080719 1.6081963 -0.0669257789850235 0.04691821709275246 -0.9966541528701782 255.0 59.0 1.0 1.0
-0.5141077 -1.5131854 1.6267943 -0.10265499353408813 -0.0067351581528782845 -0.9946942329406738 250.0 60.0 1.0 1.0
-0.4974066 -1.5158443 1.6239128 -0.17056235671043396 0.17126496136188507 -0.9703488349914551 255.0 60.0 1.0 1.0
-0.4723618 -1.4152108 1.6335917 -0.1417759656906128 0.16279204189777374 -0.9764211773872375 255.0 61.0 1.0 1.0
-0.45673576 -1.4175344 1.6306114 -0.1436927765607834 0.00010027629468822852 -0.9896224141120911 255.0 61.0 1.0 1.0
-0.43069863 -1.3162327 1.6370401 -0.14118236303329468 -0.05417029932141304 -0.9885004758834839 255.0 62.0 1.0 1.0
-0.41693893 -1.3206893 1.6370182 -0.06521853059530258 0.022595735266804695 -0.9976151585578918 255.0 62.0 1.0 1.0
-0.39490512 -1.2374022 1.6655521 -0.1366053968667984 -0.06275169551372528 -0.9886360168457031 255.0 63.0 1.0 1.0
-0.37763479 -1.2274096 1.6465852 -0.1366053968667984 -0.06275169551372528 -0.9886360168457031 255.0 63.0 1.0 1.0
-1.0496565 -1.6485516 -1.6451597 -0.07950108498334885 0.04918396472930908 0.9956206679344177 226.0 6.0 2.0 1.0
-1.0356239 -1.6646013 -1.6503477 -0.07950108498334885 0.04918396472930908 0.9956206679344177 247.0 6.0 2.0 1.0
-0.47516289 -0.67316043 -1.0739393 -0.9914485216140747 0.02781006321310997 0.12750039994716644 255.0 0.0 1.0 1.0
-0.45984793 -0.66612017 -1.0548605 -0.9914485216140747 0.02781006321310997 0.12750039994716644 255.0 0.0 1.0 1.0
-0.46737024 -0.67191851 -0.98125845 -0.0922936424612999 -0.9909875392913818 -0.09708552062511444 255.0 1.0 1.0 1.0
-0.46036169 -0.67674917 -0.98126894 -0.0922936424612999 -0.9909875392913818 -0.09708552062511444 255.0 1.0 1.0 1.0
-0.41937888 -0.61036319 -0.82143742 0.1328738033771515 0.8657169342041016 0.4825749397277832 253.0 2.0 1.0 1.0
-0.41898927 -0.62353563 -0.83337247 0.002927933819591999 -0.4636085033416748 -0.8860353231430054 244.0 2.0 1.0 1.0
-0.4081828 -0.60048109 -0.74757349 -0.03102373145520687 -0.07430832087993622 -0.9967526197433472 232.0 3.0 1.0 1.0
-0.40963614 -0.61623555 -0.76198667 -0.15042155981063843 -0.9252485036849976 -0.34826505184173584 241.0 3.0 1.0 1.0
-0.44612473 -0.66173673 -0.76613528 -0.045307692140340805 0.24004241824150085 0.9697045087814331 253.0 4.0 1.0 1.0
-0.44398728 -0.6735394 -0.77448869 -0.024170374497771263 0.062486037611961365 -0.9977531433105469 255.0 4.0 1.0 1.0
-0.47310674 -0.7069298 -0.76262009 0.07900340855121613 -0.2576073706150055 0.9630144834518433 250.0 5.0 1.0 1.0
-0.47714645 -0.72918665 -0.78139716 0.07900340855121613 -0.2576073706150055 0.9630144834518433 255.0 5.0 1.0 1.0
-0.48977163 -0.73677504 -0.74184835 -0.07950108498334885 0.04918396472930908 0.9956206679344177 166.0 6.0 1.0 1.0
-0.46537626 -0.71625066 -0.71605176 -0.07950108498334885 0.04918396472930908 0.9956206679344177 22.0 6.0 1.0 1.0
-1.1151773 -1.6829405 -1.5914209 0.015385696664452553 0.9958677887916565 0.08950329571962357 255.0 7.0 1.0 1.0
-1.1300014 -1.744494 -1.6385881 0.015385696664452553 0.9958677887916565 0.08950329571962357 255.0 7.0 1.0 1.0
-1.1274748 -1.7100666 -1.5135455 0.006738037336617708 0.9999592900276184 -0.005987048614770174 255.0 8.0 1.0 1.0
-1.1252481 -1.7460393 -1.5350109 0.00614936975762248 0.9997016191482544 -0.023644087836146355 255.0 8.0 1.0 1.0
-1.1086208 -1.6900336 -1.4004227 -0.00294481567107141 0.998096227645874 -0.06160614266991615 255.0 9.0 1.0 1.0
-1.1104439 -1.7319121 -1.4255641 -0.005594287067651749 0.999004602432251 -0.04425385221838951 255.0 9.0 1.0 1.0
-1.1155193 -1.706544 -1.3241589 -0.008559825830161572 0.998199462890625 -0.0593685619533062 255.0 10.0 1.0 1.0
