ply
format ascii 1.0
element vertex 435
property float x
property float y
property float z
property float nx
property float ny
property float nz
property float intensity
property float ring
property float return
property float label
end_header
4.0020351 2.2390118 -0.93966764 0.3825278878211975 -0.9239219427108765 0.006377116311341524 255.0 24.0 1.0 1.0
4.0355034 2.2025371 -0.94263089 0.5806594491004944 -0.8133798837661743 -0.03532344847917557 255.0 24.0 1.0 1.0
3.9966199 2.2306607 -0.81490195 0.36827945709228516 -0.9297146797180176 0.0008866445277817547 253.0 25.0 1.0 1.0
4.0335283 2.196157 -0.81825638 0.5423849821090698 -0.8399349451065063 -0.018100809305906296 255.0 25.0 1.0 1.0
4.0254302 2.2432585 -0.69807607 0.3284739851951599 -0.9444838166236877 -0.007419758476316929 255.0 26.0 1.0 1.0
4.0625429 2.2084863 -0.70102596 0.5094839334487915 -0.8603814244270325 -0.013030734844505787 255.0 26.0 1.0 1.0
4.027606 2.2400928 -0.57801712 0.2766065299510956 -0.9608436822891235 0.01637943647801876 255.0 27.0 1.0 1.0
4.054286 2.1996434 -0.57907742 0.4919707775115967 -0.8704389929771423 0.017339037731289864 255.0 27.0 1.0 1.0
4.051064 2.2496753 -0.46064794 0.2443520426750183 -0.969617486000061 -0.011581862345337868 255.0 28.0 1.0 1.0
4.0428672 2.1900263 -0.45768312 0.4668687880039215 -0.8842971920967102 0.007210486102849245 255.0 28.0 1.0 1.0
4.0439916 2.2422945 -0.3402077 0.20673328638076782 -0.9783936738967896 -0.002694237045943737 255.0 29.0 1.0 1.0
4.0566998 2.1941059 -0.3399038 0.46086394786834717 -0.8873899579048157 -0.011985457502305508 255.0 29.0 1.0 1.0
4.0652208 2.2515447 -0.22281486 0.17459428310394287 -0.9846060276031494 0.008239669725298882 255.0 30.0 1.0 1.0
4.0674715 2.1974416 -0.22225417 0.3902920186519623 -0.9201291799545288 0.03216051310300827 255.0 30.0 1.0 1.0
4.0488424 2.2399647 -0.10400855 0.17342476546764374 -0.9844968914985657 0.02626541443169117 255.0 31.0 1.0 1.0
4.0720739 2.197444 -0.10457591 0.3751734495162964 -0.9269498586654663 -0.0029835260938853025 255.0 31.0 1.0 1.0
5.5888734 1.866707 0.0079047801 -0.06290902197360992 -0.9919523596763611 0.10987778007984161 27.0 32.0 1.0 5.0
5.0675488 1.6337236 0.0061309291 -0.07533629238605499 -0.9971093535423279 -0.009877650067210197 8.0 32.0 1.0 2.0
5.0552554 1.6262769 0.14132893 -0.044559817761182785 -0.9941372275352478 0.09851763397455215 10.0 33.0 1.0 2.0
5.5486126 1.8476893 0.30598801 -0.09442970901727676 -0.9955172538757324 -0.00532850855961442 29.0 34.0 1.0 5.0
5.7121897 1.8359902 0.31336105 -0.14661578834056854 -0.9803945422172546 -0.13164469599723816 17.0 34.0 1.0 5.0
5.5968895 1.8609602 0.45977384 0.045649390667676926 -0.9982650876045227 0.03718830645084381 27.0 35.0 1.0 5.0
5.7376156 1.8413122 0.46913135 -0.09755809605121613 -0.9937805533409119 -0.05368969216942787 19.0 35.0 1.0 5.0
5.6533861 1.81036 0.61510676 0.09263979643583298 -0.9904671907424927 -0.1019442230463028 27.0 36.0 1.0 5.0
5.1023898 1.6893214 0.69748574 -0.01196588110178709 -0.9610753059387207 -0.2760271728038788 226.0 37.0 1.0 1.0
5.1047559 1.6310428 0.69480824 -0.0927739143371582 -0.9693208336830139 -0.2276182323694229 229.0 37.0 1.0 1.0
5.5352893 1.827769 0.909217 -0.0 -0.9999999403953552 0.0 31.0 38.0 1.0 5.0
5.4826751 1.7469951 0.89680004 -0.3344725966453552 -0.8253949284553528 -0.4548090994358063 37.0 38.0 1.0 5.0
5.5010805 1.8125899 1.0567611 0.519164502620697 -0.7532909512519836 0.40375858545303345 31.0 39.0 1.0 5.0
5.5048614 1.7502239 1.0532253 -0.3627518117427826 -0.8022432923316956 0.4741485118865967 34.0 39.0 1.0 5.0
5.5266571 1.8160321 1.2179699 0.023714706301689148 -0.981728732585907 -0.1888023018836975 31.0 40.0 1.0 5.0
5.6089196 1.7783047 1.2312876 -0.01601455546915531 -0.9801787734031677 -0.19746701419353485 31.0 40.0 1.0 5.0
5.5258975 1.8096995 1.3765583 -0.025461560115218163 -0.9742292761802673 -0.22411824762821198 31.0 41.0 1.0 5.0
5.4852991 1.7331057 1.3611214 -0.049163538962602615 -0.9741337299346924 -0.2205595225095749 31.0 41.0 1.0 5.0
5.5358419 1.8068541 1.5394245 -0.037586845457553864 -0.9734790325164795 -0.2256673276424408 31.0 42.0 1.0 5.0
5.5287876 1.7408081 1.5315956 -0.050211936235427856 -0.9733956456184387 -0.22356140613555908 31.0 42.0 1.0 5.0
4.5884628 1.4915018 1.4121046 -0.10330431163311005 -0.0745902732014656 -0.9918490648269653 85.0 43.0 1.0 1.0
4.5856509 1.4377688 1.4059291 -0.1862858384847641 0.050215065479278564 -0.9812114834785461 118.0 43.0 1.0 1.0
4.3139634 1.3965757 1.4581517 -0.11175688356161118 -0.07084356248378754 -0.9912071824073792 154.0 44.0 1.0 1.0
4.3284874 1.3514712 1.4576409 -0.1673133671283722 -0.02210165001451969 -0.9856560230255127 163.0 44.0 1.0 1.0
4.1835651 1.3488255 1.5441622 -0.04338829964399338 -0.9015830755233765 -0.43042466044425964 255.0 45.0 1.0 1.0
4.1940017 1.3039756 1.5423386 -0.07218406349420547 -0.8814732432365417 -0.46668457984924316 255.0 45.0 1.0 1.0
3.7285039 1.1963718 1.4934055 -0.13587182760238647 -0.3350030481815338 -0.9323689341545105 255.0 46.0 1.0 1.0
3.7266905 1.1529915 1.4872504 -0.10071951895952225 -0.29857301712036133 -0.9490572810173035 244.0 46.0 1.0 1.0
3.5103743 1.1216474 1.5209725 -0.19882823526859283 -0.06478587538003922 -0.9778907299041748 255.0 47.0 1.0 1.0
3.4938126 1.0762663 1.5083232 -0.14244234561920166 -0.03598202019929886 -0.9891489148139954 255.0 47.0 1.0 1.0
3.153141 1.745831 1.6174093 -0.20367629826068878 -0.0513983815908432 -0.977688193321228 244.0 48.0 1.0 1.0
3.1553531 1.7042053 1.6087631 -0.16536396741867065 -0.061889130622148514 -0.9842889308929443 238.0 48.0 1.0 1.0
2.9508808 1.6362802 1.6279215 -0.16590848565101624 -0.10954540967941284 -0.9800379276275635 250.0 49.0 1.0 1.0
2.9648373 1.6037368 1.6257664 -0.11577948182821274 -0.16095614433288574 -0.9801470041275024 255.0 49.0 1.0 1.0
2.7749109 1.5415713 1.642777 -0.11495490372180939 -0.058780737221241 -0.9916301369667053 255.0 50.0 1.0 1.0
2.7754471 1.5041279 1.6331785 -0.10122863948345184 -0.017533035948872566 -0.9947086572647095 247.0 50.0 1.0 1.0
2.5967033 1.4463698 1.6469744 -0.10691806674003601 -0.016117816790938377 -0.9941371083259583 247.0 51.0 1.0 1.0
2.6210754 1.4242731 1.6524364 -0.12011658400297165 -0.008982116356492043 -0.9927191734313965 255.0 51.0 1.0 1.0
2.4566295 1.3713292 1.6665974 -0.14198176562786102 -0.07726660370826721 -0.9868491291999817 255.0 52.0 1.0 1.0
2.4589295 1.3391098 1.6580837 -0.12981249392032623 -0.06492944806814194 -0.9894103407859802 255.0 52.0 1.0 1.0
2.30217 1.2888739 1.6688987 -0.11895765364170074 -0.01568704843521118 -0.9927753210067749 255.0 53.0 1.0 1.0
2.312731 1.26324 1.666433 -0.1502974033355713 -0.04757602885365486 -0.9874953627586365 255.0 53.0 1.0 1.0
2.171665 1.2202784 1.6821715 -0.13079579174518585 -0.0877145379781723 -0.9875214695930481 255.0 54.0 1.0 1.0
2.1757679 1.1928556 1.6751392 -0.13395167887210846 -0.0876772552728653 -0.9871016144752502 255.0 54.0 1.0 1.0
2.03637 1.1483572 1.6848371 -0.15415529906749725 -0.06901302188634872 -0.9856334328651428 255.0 55.0 1.0 1.0
2.05128 1.1287 1.6868922 -0.11455167829990387 -0.06695277243852615 -0.9911585450172424 255.0 55.0 1.0 1.0
1.9182942 1.0868716 1.6959066 -0.0897669643163681 -0.061136335134506226 -0.9940845966339111 253.0 56.0 1.0 1.0
1.9214126 1.0622895 1.6883086 -0.08989229053258896 -0.03088369406759739 -0.9954725503921509 250.0 56.0 1.0 1.0
1.8165371 1.0347903 1.7172688 0.21373671293258667 -0.022025689482688904 -0.9766430258750916 255.0 57.0 1.0 1.0
1.8436229 1.0248893 1.7322664 0.234903946518898 -0.00996461883187294 -0.9719675183296204 255.0 57.0 1.0 1.0
1.7171043 0.98370397 1.7373812 0.21493251621723175 -0.06230466440320015 -0.9746395349502563 250.0 58.0 1.0 1.0
1.7169907 0.95997322 1.7265677 -0.3021800220012665 -0.062140144407749176 -0.9512232542037964 250.0 58.0 1.0 1.0
1.5886433 0.91619617 1.7243416 -0.3779483139514923 -0.0712246298789978 -0.9230830073356628 241.0 59.0 1.0 1.0
1.5907019 0.89539212 1.7158854 -0.08416474610567093 -0.08530103415250778 -0.9927940368652344 241.0 59.0 1.0 1.0
1.4757836 0.85799772 1.7225543 0.2930136024951935 -0.06054256483912468 -0.9541894793510437 247.0 60.0 1.0 1.0
1.4872922 0.84405512 1.7251883 0.2642097473144531 -0.052052926272153854 -0.9630594849586487 241.0 60.0 1.0 1.0
1.3979999 0.82079971 1.7602383 -0.21472111344337463 -0.05720791220664978 -0.9749985337257385 255.0 61.0 1.0 1.0
1.4137236 0.81032926 1.7688742 -0.220781147480011 -0.06355030834674835 -0.9732508063316345 255.0 61.0 1.0 1.0
1.2706425 0.7539956 1.7324147 -0.503789484500885 -0.040781959891319275 -0.8628632426261902 255.0 62.0 1.0 1.0
1.2741449 0.73821658 1.7261393 -0.2080639898777008 -0.005672503262758255 -0.9780987501144409 255.0 62.0 1.0 1.0
1.1781362 0.70852304 1.7491938 -0.06965689361095428 0.0029432533774524927 -0.9975666999816895 255.0 63.0 1.0 1.0
1.1792706 0.69256425 1.7395804 -0.06965689361095428 0.0029432533774524927 -0.9975666999816895 255.0 63.0 1.0 1.0
1.0986342 0.28711256 -1.5179107 0.19983108341693878 0.033442214131355286 0.9792594909667969 20.0 0.0 1.0 1.0
1.2458485 0.3333672 -1.5851942 0.13545536994934082 0.005892343353480101 0.9907659292221069 223.0 1.0 1.0 1.0
1.2326815 0.34381297 -1.5726541 0.12335852533578873 0.005366127472370863 0.9923476576805115 136.0 1.0 1.0 1.0
1.3422532 0.36571819 -1.5830336 0.06407386064529419 0.1456274390220642 0.9872625470161438 255.0 2.0 1.0 1.0
1.3359381 0.37917107 -1.5798794 0.06475391983985901 0.017885619774460793 0.9977409839630127 247.0 2.0 1.0 1.0
1.4492146 0.40127772 -1.5884945 0.19434338808059692 0.10476019978523254 0.975323498249054 255.0 3.0 1.0 1.0
1.4530016 0.41886523 -1.5970328 0.17758886516094208 0.05725208297371864 0.9824379682540894 255.0 3.0 1.0 1.0
1.5668246 0.43946481 -1.6016387 0.18386097252368927 0.07814060151576996 0.9798414707183838 255.0 4.0 1.0 1.0
1.5540508 0.45358697 -1.5930524 0.12681519985198975 0.05389625206589699 0.9904611110687256 255.0 4.0 1.0 1.0
1.676929 0.47552782 -1.6016504 0.13843922317028046 0.060866449028253555 0.9884987473487854 255.0 5.0 1.0 1.0
1.6691626 0.49236864 -1.598755 0.14335839450359344 0.08176466077566147 0.9862874746322632 255.0 5.0 1.0 1.0
1.8075619 0.5175941 -1.615743 0.12686195969581604 0.05121484026312828 0.9905973672866821 255.0 6.0 1.0 1.0
1.7934461 0.53403366 -1.6077254 0.12266382575035095 0.028936192393302917 0.9920263290405273 255.0 6.0 1.0 1.0
1.9363388 0.55884808 -1.6219524 0.14247891306877136 0.11444000154733658 0.9831598401069641 255.0 7.0 1.0 1.0
1.9245408 0.57744277 -1.616721 0.12887747585773468 0.10351524502038956 0.9862430095672607 255.0 7.0 1.0 1.0
2.0718713 0.60195988 -1.6280515 0.1606234908103943 0.07227570563554764 0.9843659400939941 255.0 8.0 1.0 1.0
2.0594714 0.62191719 -1.6230013 0.16289472579956055 0.12272348254919052 0.9789812564849854 255.0 8.0 1.0 1.0
2.2364507 0.65418202 -1.6492765 0.10432049632072449 0.08993343263864517 0.9904691576957703 255.0 9.0 1.0 1.0
2.2139843 0.67295462 -1.6374831 0.1084965392947197 0.024795522913336754 0.9937875270843506 255.0 9.0 1.0 1.0
2.3779619 0.69850558 -1.6450317 0.14215464890003204 0.03901839256286621 0.9890751838684082 247.0 10.0 1.0 1.0
2.3770339 0.72546363 -1.6491719 0.21915926039218903 0.036223430186510086 0.9750164151191711 253.0 10.0 1.0 1.0
2.5591149 0.75543845 -1.6601452 0.15999294817447662 0.03371444717049599 0.9865422248840332 244.0 11.0 1.0 1.0
2.5512025 0.78234237 -1.6598481 0.15030427277088165 0.023793954402208328 0.9883533716201782 253.0 11.0 1.0 1.0
2.7592461 0.81805634 -1.6761476 0.20157046616077423 0.0667174905538559 0.977199137210846 247.0 12.0 1.0 1.0
2.7308366 0.84094065 -1.6637722 0.18792057037353516 -0.04327347129583359 0.9812305569648743 250.0 12.0 1.0 1.0
2.944375 0.87566274 -1.6740869 0.15321959555149078 0.057463500648736954 0.986519992351532 241.0 13.0 1.0 1.0
2.9284687 0.90451944 -1.6699244 0.13225170969963074 -0.021123996004462242 0.9909910559654236 232.0 13.0 1.0 1.0
3.1856732 0.9498263 -1.6924365 0.14218129217624664 0.0963955894112587 0.9851357340812683 235.0 14.0 1.0 1.0
3.1382198 0.97167021 -1.6721451 0.1471434384584427 0.07132407277822495 0.9865401983261108 220.0 14.0 1.0 1.0
3.4432278 1.0292637 -1.7060919 0.13962066173553467 0.08090004324913025 0.9868946671485901 220.0 15.0 1.0 1.0
3.4254987 1.06327 -1.7022676 0.12997478246688843 0.07113111764192581 0.9889624714851379 223.0 15.0 1.0 1.0
3.2477632 1.7259066 -1.617712 0.12668465077877045 0.06032222881913185 0.9901071786880493 217.0 16.0 1.0 1.0
3.2135665 1.7511966 -1.6092306 0.10396917909383774 0.016232125461101532 0.9944480657577515 220.0 16.0 1.0 1.0
3.5333076 1.8713042 -1.6301973 0.12783923745155334 0.04826681688427925 0.9906197190284729 205.0 17.0 1.0 1.0
3.4908643 1.8959601 -1.6191649 0.12859389185905457 0.07065131515264511 0.989177405834198 199.0 17.0 1.0 1.0
3.8619854 2.0376363 -1.6437882 0.13100934028625488 0.06693878024816513 0.9891186356544495 190.0 18.0 1.0 1.0
3.8208144 2.067414 -1.6348226 0.14760254323482513 0.022840555757284164 0.9887830018997192 184.0 18.0 1.0 1.0
4.0829668 2.1469879 -1.5968699 0.8080116510391235 -0.5108458995819092 0.29351961612701416 255.0 19.0 1.0 1.0
4.0437565 2.1807888 -1.5897837 0.7575612664222717 -0.6518397331237793 0.03472655266523361 255.0 19.0 1.0 1.0
4.0978413 2.1484647 -1.465735 0.8101930022239685 -0.573489248752594 -0.12123185396194458 255.0 20.0 1.0 1.0
4.0651636 2.1859648 -1.4615589 0.7206591963768005 -0.6878392696380615 -0.08676066994667053 255.0 20.0 1.0 1.0
4.0853 2.1356125 -1.3283913 0.8218836784362793 -0.5602670907974243 -0.10299547016620636 255.0 21.0 1.0 1.0
4.0662107 2.1802073 -1.3289347 0.7456660270690918 -0.6633267998695374 -0.0630842000246048 255.0 21.0 1.0 1.0
4.1001849 2.1371293 -1.2015848 0.8463473916053772 -0.5290554165840149 -0.06161509454250336 255.0 22.0 1.0 1.0
4.0571918 2.1690927 -1.1950088 0.7380496263504028 -0.6692575812339783 -0.08588847517967224 255.0 22.0 1.0 1.0
4.1078053 2.1357911 -1.0757545 0.7626157402992249 -0.6460500955581665 -0.032192375510931015 255.0 23.0 1.0 1.0
4.0681119 2.1696079 -1.0706847 0.6455237865447998 -0.7635420560836792 -0.01739508844912052 255.0 23.0 1.0 1.0
4.0945473 2.1245401 -0.94688714 0.7305230498313904 -0.6804002523422241 -0.05823824182152748 255.0 24.0 1.0 1.0
4.0548568 2.1581693 -0.94232482 0.6306991577148438 -0.7752966284751892 -0.033669572323560715 255.0 24.0 1.0 1.0
4.0960302 2.1200633 -0.82280248 0.7011889219284058 -0.710017740726471 -0.0648769736289978 255.0 25.0 1.0 1.0
4.0806279 2.1666021 -0.82363975 0.5677621364593506 -0.820594310760498 -0.06535515189170837 255.0 25.0 1.0 1.0
4.1078272 2.1227536 -0.70208365 0.6746683120727539 -0.7365326881408691 -0.04839618131518364 255.0 26.0 1.0 1.0
4.0784402 2.1620033 -0.70032948 0.530168890953064 -0.8475872874259949 -0.02273404970765114 255.0 26.0 1.0 1.0
4.1064591 2.117754 -0.58112317 0.6425964832305908 -0.7655017375946045 -0.032815273851156235 255.0 27.0 1.0 1.0
4.0911188 2.1643977 -0.58155286 0.6186231374740601 -0.7856845259666443 -0.002313424600288272 255.0 27.0 1.0 1.0
4.1090355 2.1157033 -0.46109486 0.6721755862236023 -0.7399328351020813 -0.02606513723731041 255.0 28.0 1.0 1.0
4.0796509 2.1549299 -0.45974821 0.5892527103424072 -0.807919442653656 0.006886274088174105 255.0 28.0 1.0 1.0
4.1230216 2.1195297 -0.34270501 0.6006311178207397 -0.7995134592056274 -0.004536729771643877 255.0 29.0 1.0 1.0
4.0970964 2.1607492 -0.34185204 0.5318278670310974 -0.8468387126922607 -0.004835555795580149 255.0 29.0 1.0 1.0
4.1161456 2.1135442 -0.22349924 0.5992151498794556 -0.7994046211242676 -0.04351237416267395 255.0 30.0 1.0 1.0
4.0902662 2.1546793 -0.2227494 0.4739933907985687 -0.8805233240127563 -0.0030229866970330477 255.0 30.0 1.0 1.0
4.1278834 2.1171281 -0.10589516 0.5644919872283936 -0.823775589466095 -0.05237050727009773 255.0 31.0 1.0 1.0
4.1054907 2.1602383 -0.10533283 0.45255351066589355 -0.8897122144699097 -0.06006285175681114 255.0 31.0 1.0 1.0
5.0317025 1.5065635 0.0049426039 -0.01999562606215477 -0.9931042194366455 0.11551720649003983 8.0 32.0 1.0 2.0
5.0805836 1.5177799 0.14005212 -0.10390657186508179 -0.9715009927749634 0.21304753422737122 15.0 33.0 1.0 2.0
5.1064 1.583912 0.14184473 -0.08543556183576584 -0.9582628011703491 0.2728244960308075 8.0 33.0 1.0 2.0
5.0796509 1.5160029 0.27529994 -0.0699739083647728 -0.9970836043357849 0.03046421892940998 6.0 34.0 1.0 2.0
11.182516 3.3329692 0.910083 -0.0750708281993866 -0.9970537424087524 -0.015748709440231323 14.0 35.0 1.0 5.0
11.226913 3.4745491 0.91795391 0.047007400542497635 -0.9940162301063538 -0.0986005961894989 13.0 35.0 1.0 5.0
9.7971621 2.9133189 1.0601315 -0.011164105497300625 -0.9910181164741516 0.13326042890548706 12.0 36.0 1.0 5.0
5.0998883 1.5126396 0.68857491 -0.06405524164438248 -0.9490176439285278 -0.30864623188972473 232.0 37.0 1.0 1.0
5.0950742 1.5693909 0.69071817 0.00031049022800289094 -0.9646586179733276 -0.26350271701812744 226.0 37.0 1.0 1.0
5.1796408 1.5909059 0.8437227 -0.08827901631593704 -0.9838413000106812 0.15576617419719696 13.0 38.0 1.0 2.0
5.1215949 1.511119 0.97220552 -0.22586886584758759 -0.937036395072937 0.2663571238517761 16.0 39.0 1.0 2.0
5.7298584 1.7560382 1.0923172 -0.05993087962269783 -0.9651299118995667 0.2548184096813202 17.0 39.0 1.0 5.0
5.1531596 1.5159118 1.122533 -0.05962812900543213 -0.9903948307037354 -0.12474939227104187 13.0 40.0 1.0 2.0
5.7920346 1.7699732 1.2669251 -0.04735257104039192 -0.9806150197982788 -0.19013656675815582 27.0 40.0 1.0 5.0
5.4608517 1.6006216 1.3452103 -0.043953005224466324 -0.9732434153556824 -0.2255336195230484 29.0 41.0 1.0 5.0
5.4771738 1.6677896 1.3541533 -0.045739445835351944 -0.9734278321266174 -0.22437943518161774 28.0 41.0 1.0 5.0
5.5123096 1.6097919 1.5161117 -0.04336610436439514 -0.97442626953125 -0.22048310935497284 31.0 42.0 1.0 5.0
5.5061111 1.670643 1.5198218 -0.04838123172521591 -0.9744589328765869 -0.21929217875003815 32.0 42.0 1.0 5.0
4.5928626 1.3352975 1.3982254 -0.05764028802514076 0.1034909188747406 -0.9929588437080383 109.0 43.0 1.0 1.0
4.5748253 1.3820671 1.3976299 -0.1165982037782669 0.12554451823234558 -0.9852123856544495 130.0 43.0 1.0 1.0
4.3231559 1.2513175 1.4457059 -0.14603853225708008 -0.06040355935692787 -0.9874330759048462 154.0 44.0 1.0 1.0
4.3096828 1.2963737 1.4462048 -0.1482522338628769 -0.02990143932402134 -0.9884974360466003 121.0 44.0 1.0 1.0
4.1734982 1.2026119 1.5242103 -0.04972453415393829 -0.9686959385871887 -0.2432190626859665 255.0 45.0 1.0 1.0
4.1677647 1.2482629 1.5273482 -0.03046642430126667 -0.8376619219779968 -0.5453386306762695 255.0 45.0 1.0 1.0
3.7287004 1.0688457 1.4779174 -0.1528274416923523 -0.40307754278182983 -0.9023149609565735 255.0 46.0 1.0 1.0
3.7386506 1.114091 1.4869164 -0.213546022772789 -0.35252776741981506 -0.9111104607582092 255.0 46.0 1.0 1.0
3.5655789 1.0174135 1.5290084 0.0784011110663414 -0.0518401563167572 -0.995573103427887 255.0 47.0 1.0 1.0
3.5226996 1.0450735 1.5156569 0.0784011110663414 -0.0518401563167572 -0.995573103427887 255.0 47.0 1.0 1.0
3.2003379 1.6431183 1.6128683 -0.0440339520573616 -0.10110627114772797 -0.993900716304779 247.0 48.0 1.0 1.0
3.1892636 1.6797824 1.6165853 -0.07012497633695602 -0.08777430653572083 -0.9936691522598267 244.0 48.0 1.0 1.0
2.97561 1.5301309 1.6128167 -0.0609423853456974 -0.04732766002416611 -0.997018575668335 247.0 49.0 1.0 1.0
2.9720154 1.5677701 1.6201864 -0.14456021785736084 -0.13503730297088623 -0.9802383780479431 253.0 49.0 1.0 1.0
2.8034356 1.4444202 1.6306213 -0.1338711977005005 -0.06450125575065613 -0.988897442817688 253.0 50.0 1.0 1.0
2.7848685 1.4718754 1.6291621 -0.14535005390644073 -0.07203100621700287 -0.9867547750473022 253.0 50.0 1.0 1.0
2.6505842 1.3694483 1.6517601 -0.14414265751838684 -0.07871520519256592 -0.9864212274551392 255.0 51.0 1.0 1.0
2.6390367 1.3986039 1.6540637 -0.09615064412355423 0.007641290780156851 -0.9953374862670898 255.0 51.0 1.0 1.0
2.4683654 1.278205 1.6452012 -0.13174529373645782 -0.0573989637196064 -0.9896203875541687 250.0 52.0 1.0 1.0
2.4607692 1.3070484 1.649622 -0.07959441840648651 -0.04985228553414345 -0.9955800175666809 255.0 52.0 1.0 1.0
2.3449316 1.2180299 1.6701188 -0.10975190252065659 -0.09696894139051437 -0.9892176389694214 255.0 53.0 1.0 1.0
2.3259332 1.2391738 1.6661564 -0.08980205655097961 -0.027006568387150764 -0.9955934286117554 255.0 53.0 1.0 1.0
2.1917181 1.142817 1.6678538 -0.11029352247714996 0.011255078949034214 -0.9938353300094604 255.0 54.0 1.0 1.0
2.2057648 1.1796094 1.6883301 -0.15991124510765076 -0.039278317242860794 -0.9863495826721191 255.0 54.0 1.0 1.0
2.0747268 1.0858842 1.6863631 -0.13251690566539764 -0.05495337396860123 -0.9896562099456787 255.0 55.0 1.0 1.0
2.057375 1.1043143 1.6819637 -0.10284373164176941 -0.055148348212242126 -0.993167519569397 255.0 55.0 1.0 1.0
1.9463004 1.0236851 1.6902543 0.19269174337387085 -0.04205477610230446 -0.9803577661514282 253.0 56.0 1.0 1.0
1.9408948 1.0468531 1.6954056 0.19269174337387085 -0.04205477610230446 -0.9803577661514282 255.0 56.0 1.0 1.0
1.8622172 0.9850114 1.7292484 -0.37962794303894043 -0.036932650953531265 -0.9244017601013184 255.0 57.0 1.0 1.0
1.8435001 0.9998666 1.7218783 0.234903946518898 -0.00996461883187294 -0.9719675183296204 253.0 57.0 1.0 1.0
1.7263782 0.91855836 1.7155569 -0.3944166302680969 -0.05527733266353607 -0.9172676205635071 247.0 58.0 1.0 1.0
1.7191436 0.93785614 1.7184371 -0.48013928532600403 -0.05718207359313965 -0.8753265738487244 250.0 58.0 1.0 1.0
1.6119324 0.86365873 1.7182167 0.3157939612865448 -0.06919082999229431 -0.9463016390800476 238.0 59.0 1.0 1.0
1.605194 0.88172448 1.7211826 -0.10873129963874817 -0.10986211895942688 -0.9879817366600037 241.0 59.0 1.0 1.0
1.5271723 0.82517141 1.7503971 -0.1548113226890564 -0.07069948315620422 -0.9854111075401306 255.0 60.0 1.0 1.0
1.5182879 0.84094572 1.7506089 0.28235307335853577 -0.06883798539638519 -0.9568375945091248 255.0 60.0 1.0 1.0
1.3831435 0.75499022 1.7096123 -0.5486959218978882 -0.05731116980314255 -0.8340552449226379 244.0 61.0 1.0 1.0
1.4009815 0.78381616 1.7422004 -0.5646666884422302 -0.053776297718286514 -0.8235651254653931 255.0 61.0 1.0 1.0
1.2986649 0.71679217 1.7379912 -0.2080639898777008 -0.005672503262758255 -0.9780987501144409 255.0 62.0 1.0 1.0
1.2841616 0.72634792 1.7290342 -0.2080639898777008 -0.005672503262758255 -0.9780987501144409 255.0 62.0 1.0 1.0
1.1873188 0.66450179 1.7298315 -0.037838708609342575 0.04402701184153557 -0.9983135461807251 255.0 63.0 1.0 1.0
1.1929812 0.68410462 1.7488825 -0.06958987563848495 0.043951746076345444 -0.9966070055961609 255.0 63.0 1.0 1.0
2.0719016 0.60191804 -1.6280195 0.1606234908103943 0.07227570563554764 0.9843659400939941 255.0 8.0 1.0 1.0
5.7764802 1.7743255 0.94151741 -0.08827901631593704 -0.9838413000106812 0.15576617419719696 9.0 38.0 2.0 5.0
6.7140965 1.9812572 1.2759418 -0.3230413496494293 -0.9403701424598694 0.10652828216552734 21.0 39.0 2.0 5.0
1.1434015 0.28589192 -1.5755973 0.19983108341693878 0.033442214131355286 0.9792594909667969 193.0 0.0 1.0 1.0
1.1578668 0.27655879 -1.5917267 0.1485220044851303 0.03375208005309105 0.988332986831665 244.0 0.0 1.0 1.0
1.266332 0.32448965 -1.606989 0.15494202077388763 -0.0014809533022344112 0.9879224300384521 255.0 1.0 1.0 1.0
1.2719806 0.31167245 -1.6102298 0.11833544820547104 0.00329959555529058 0.9929681420326233 255.0 1.0 1.0 1.0
1.340818 0.35008767 -1.5771331 0.18129555881023407 0.14350906014442444 0.9729012846946716 253.0 2.0 1.0 1.0
1.3545359 0.33845818 -1.5892907 0.17037473618984222 0.13486440479755402 0.976106584072113 255.0 2.0 1.0 1.0
1.4692241 0.39011016 -1.6060189 0.21846143901348114 0.12570281326770782 0.9677155613899231 255.0 3.0 1.0 1.0
1.4757621 0.37524194 -1.6090853 0.22020310163497925 0.006779152899980545 0.9754304885864258 255.0 3.0 1.0 1.0
1.5740194 0.42355639 -1.6045659 0.13800041377544403 0.07873521745204926 0.9872975945472717 255.0 4.0 1.0 1.0
1.567183 0.40405425 -1.5935303 0.13800041377544403 0.07873521745204926 0.9872975945472717 253.0 4.0 1.0 1.0
1.6902739 0.4600476 -1.609895 0.13355252146720886 0.05590400844812393 0.989463746547699 255.0 5.0 1.0 1.0
1.7005687 0.44367164 -1.615492 0.13355252146720886 0.05590400844812393 0.989463746547699 255.0 5.0 1.0 1.0
1.8274441 0.50244534 -1.628909 0.1375616043806076 0.08726855367422104 0.9866413474082947 255.0 6.0 1.0 1.0
1.8060483 0.47616026 -1.6056788 0.1375616043806076 0.08726855367422104 0.9866413474082947 253.0 6.0 1.0 1.0
1.9420079 0.53831547 -1.6221122 0.09413935989141464 0.06702364236116409 0.9933003783226013 255.0 7.0 1.0 1.0
1.9443895 0.51700455 -1.6198266 0.08649522066116333 0.05934717506170273 0.9944830536842346 255.0 7.0 1.0 1.0
2.0841393 0.58172452 -1.6330359 0.1347426176071167 0.07255872339010239 0.9882205128669739 255.0 8.0 1.0 1.0
2.0838079 0.55806893 -1.6284591 0.1680954396724701 0.10642807930707932 0.9800086617469788 255.0 8.0 1.0 1.0
2.2368102 0.62872529 -1.6448495 0.15388613939285278 0.09237638860940933 0.9837610721588135 255.0 9.0 1.0 1.0
2.243134 0.60512316 -1.6451029 0.08314231038093567 0.020847221836447716 0.9963196516036987 255.0 9.0 1.0 1.0
2.4011152 0.67787015 -1.6562762 0.13580641150474548 0.0325528159737587 0.9902004599571228 250.0 10.0 1.0 1.0
2.4272535 0.65778333 -1.6698027 0.1101115345954895 0.01570316217839718 0.9937952160835266 255.0 10.0 1.0 1.0
2.5766149 0.73114997 -1.6666927 0.12192653119564056 0.022599175572395325 0.9922818541526794 250.0 11.0 1.0 1.0
2.5872684 0.7048763 -1.6690954 0.07675784826278687 0.060162562876939774 0.9952330589294434 250.0 11.0 1.0 1.0
2.7609322 0.78698117 -1.6723651 0.17524681985378265 0.061709024012088776 0.9825887680053711 244.0 12.0 1.0 1.0
2.7755518 0.75970751 -1.6766992 0.09852898120880127 -0.01644274778664112 0.9949982762336731 244.0 12.0 1.0 1.0
2.9634409 0.8474443 -1.6800741 0.08835059404373169 0.008391879498958588 0.9960541129112244 235.0 13.0 1.0 1.0
2.9923403 0.82180709 -1.6918789 0.16918577253818512 0.12465326488018036 0.9776695370674133 238.0 13.0 1.0 1.0
3.2090783 0.92010623 -1.6999601 0.1301082819700241 0.08419319987297058 0.9879187345504761 244.0 14.0 1.0 1.0
3.214957 0.88535482 -1.6985133 0.10877576470375061 -0.0020619314163923264 0.994064211845398 238.0 14.0 1.0 1.0
3.4641609 0.99590278 -1.71153 0.0867248922586441 0.02320539392530918 0.9959619641304016 220.0 15.0 1.0 1.0
3.4707718 0.95845985 -1.7102116 0.13279752433300018 0.02420245110988617 0.9908475875854492 211.0 15.0 1.0 1.0
3.2558336 1.6865125 -1.613276 0.1287996768951416 0.0424804724752903 0.990760326385498 202.0 16.0 1.0 1.0
3.3026037 1.667046 -1.6281881 0.15934213995933533 0.03733867034316063 0.986517071723938 226.0 16.0 1.0 1.0
3.5625167 1.8390657 -1.6351399 0.13937844336032867 0.06147455424070358 0.9883291721343994 202.0 17.0 1.0 1.0
3.5979896 1.8098443 -1.6431609 0.11249174922704697 0.06787990033626556 0.9913313388824463 202.0 17.0 1.0 1.0
3.8897026 2.000268 -1.6470617 0.16507364809513092 0.09184187650680542 0.9819957613945007 181.0 18.0 1.0 1.0
3.9437697 1.9760634 -1.6616573 0.19401809573173523 0.09190680086612701 0.9766832590103149 193.0 18.0 1.0 1.0
4.1522622 2.1280284 -1.6156384 0.8796794414520264 -0.3752736747264862 0.29211926460266113 255.0 19.0 1.0 1.0
4.184329 2.0893588 -1.6201178 0.9113008379936218 -0.37822872400283813 0.1627078652381897 244.0 19.0 1.0 1.0
4.1472254 2.1191058 -1.4758648 0.8880322575569153 -0.44912397861480713 -0.09841971099376678 255.0 20.0 1.0 1.0
4.220274 2.1009386 -1.4945102 0.959412693977356 -0.2730722427368164 -0.07041823863983154 255.0 20.0 1.0 1.0
4.1347895 2.1064818 -1.3377148 0.8634709715843201 -0.49464771151542664 -0.09869840741157532 255.0 21.0 1.0 1.0
4.2012706 2.0851791 -1.3526402 0.9353320002555847 -0.337089478969574 -0.10735256224870682 255.0 21.0 1.0 1.0
4.1395545 2.1026647 -1.2070869 0.8148759603500366 -0.5695341229438782 -0.10774070024490356 255.0 22.0 1.0 1.0
4.2098274 2.0831497 -1.2216957 0.9300378561019897 -0.355243057012558 -0.09397832304239273 255.0 22.0 1.0 1.0
4.1472869 2.1013024 -1.0807526 0.7972085475921631 -0.5965254306793213 -0.09282176941633224 255.0 23.0 1.0 1.0
4.1969271 2.0714698 -1.0885329 0.8804524540901184 -0.46744462847709656 -0.07936739921569824 255.0 23.0 1.0 1.0
4.1480126 2.0973191 -0.95458299 0.7975183129310608 -0.6023420095443726 -0.03389177843928337 255.0 24.0 1.0 1.0
4.2013063 2.0692778 -0.96235627 0.9118021130561829 -0.4049724340438843 -0.0679289773106575 255.0 24.0 1.0 1.0
4.1425948 2.0893431 -0.8281821 0.7987494468688965 -0.6000428199768066 -0.04413368180394173 255.0 25.0 1.0 1.0
4.2065926 2.066628 -0.83713728 0.85268634557724 -0.5106854438781738 -0.11012044548988342 255.0 25.0 1.0 1.0
4.1439419 2.0866249 -0.7049576 0.7617567181587219 -0.6465768814086914 -0.04080505296587944 255.0 26.0 1.0 1.0
4.1868124 2.0535147 -0.70910054 0.8628669381141663 -0.5041516423225403 -0.03593987971544266 255.0 26.0 1.0 1.0
4.1354909 2.078104 -0.58259881 0.7363559603691101 -0.6754147410392761 -0.039935801178216934 255.0 27.0 1.0 1.0
4.1890616 2.0503495 -0.58762169 0.823411226272583 -0.5633993148803711 -0.0676393061876297 255.0 27.0 1.0 1.0
4.1558628 2.0849764 -0.46433583 0.7518807649612427 -0.6565460562705994 -0.06018687039613724 255.0 28.0 1.0 1.0
4.1988893 2.0517995 -0.46725896 0.7958829402923584 -0.6025436520576477 -0.05925877019762993 255.0 28.0 1.0 1.0
4.1378589 2.0725982 -0.34260616 0.7516019344329834 -0.6581422686576843 -0.044082190841436386 255.0 29.0 1.0 1.0
4.202332 2.0501299 -0.3466664 0.8231180310249329 -0.5635401606559753 -0.06999403983354568 255.0 29.0 1.0 1.0
4.1523509 2.0774293 -0.22474182 0.7047151923179626 -0.7083272337913513 -0.04060976207256317 255.0 30.0 1.0 1.0
4.2025952 2.0478287 -0.2268195 0.7542966604232788 -0.6564658284187317 -0.009446009993553162 255.0 30.0 1.0 1.0
4.1605706 2.0791175 -0.10664389 0.6573724150657654 -0.7533276081085205 -0.018948623910546303 255.0 31.0 1.0 1.0
4.200088 2.044189 -0.10764308 0.7347988486289978 -0.677274227142334 -0.0370180681347847 255.0 31.0 1.0 1.0
5.1112957 1.4110647 0.13902126 -0.08750058710575104 -0.992572546005249 0.08451869338750839 15.0 33.0 1.0 2.0
5.0795403 1.4008381 0.27259082 0.056346479803323746 -0.9880185723304749 0.14368094503879547 12.0 34.0 1.0 2.0
11.205379 3.212445 0.90813661 -0.025024203583598137 -0.99961256980896 -0.012190396897494793 8.0 35.0 1.0 5.0
11.246178 3.0971463 0.90748543 0.0651346892118454 -0.9948813915252686 0.07725553214550018 10.0 35.0 1.0 5.0
9.7564583 2.6802928 1.0473809 -0.05314953997731209 -0.9960907697677612 0.07055731862783432 16.0 36.0 1.0 5.0
5.1078706 1.4570436 0.68709129 -0.11033690720796585 -0.9542965292930603 -0.27774778008461 250.0 37.0 1.0 2.0
5.0655336 1.3878194 0.67877334 -0.0778263732790947 -0.9751371145248413 -0.2074865996837616 202.0 37.0 1.0 1.0
5.1435423 1.4627918 0.83154207 0.04955026134848595 -0.9920222163200378 0.11591686308383942 13.0 38.0 1.0 2.0
5.1357832 1.4026867 0.82725459 -0.027585061267018318 -0.9956972002983093 0.08846448361873627 10.0 38.0 1.0 2.0
6.7080798 1.9034525 1.2702239 -0.06922529637813568 -0.9647836685180664 0.25377240777015686 24.0 39.0 1.0 5.0
5.1408873 1.4006317 0.96901447 -0.07156651467084885 -0.9740237593650818 0.2148391753435135 11.0 39.0 1.0 2.0
5.1763582 1.4641255 1.1237206 -0.0777541846036911 -0.9869715571403503 -0.1408594250679016 22.0 40.0 1.0 2.0
5.1763992 1.4058483 1.1198519 -0.09722279012203217 -0.9872121810913086 -0.12633228302001953 12.0 40.0 1.0 2.0
5.4511757 1.5361117 1.3382702 -0.05455091595649719 -0.9731183648109436 -0.22375214099884033 30.0 41.0 1.0 5.0
5.4407878 1.4719604 1.3311971 -0.06589964032173157 -0.9780545234680176 -0.1976526975631714 30.0 41.0 1.0 5.0
5.488008 1.5406568 1.5043684 -0.04322559013962746 -0.9737034440040588 -0.22368094325065613 30.0 42.0 1.0 5.0
5.5114465 1.4852666 1.5057935 -0.044853199273347855 -0.9737393856048584 -0.22320355474948883 31.0 42.0 1.0 5.0
4.6251631 1.2924658 1.4034506 -0.04417989030480385 0.012783588841557503 -0.9989418387413025 76.0 43.0 1.0 1.0
4.6200371 1.239127 1.3973038 -0.13219483196735382 -0.10538575798273087 -0.9856056571006775 76.0 43.0 1.0 1.0
4.3251066 1.2030923 1.4416512 -0.14664338529109955 -0.08200681954622269 -0.9857842326164246 142.0 44.0 1.0 1.0
4.311852 1.1509999 1.4325813 -0.054950859397649765 -0.06446834653615952 -0.9964056611061096 121.0 44.0 1.0 1.0
4.2041368 1.1640685 1.5304869 -0.12029985338449478 -0.9676254391670227 -0.22187583148479462 255.0 45.0 1.0 1.0
4.1870632 1.1123757 1.5193954 -0.07588909566402435 -0.9467785954475403 -0.31281179189682007 255.0 45.0 1.0 1.0
3.732573 1.0279411 1.4747418 0.14962086081504822 -0.38153862953186035 -0.912163257598877 244.0 46.0 1.0 1.0
3.7721696 0.9965865 1.4857386 0.4663867652416229 -0.3729618191719055 -0.8021115064620972 220.0 46.0 1.0 1.0
3.5618699 0.97630131 1.5225899 0.2868684232234955 -0.05223105475306511 -0.9565450549125671 253.0 47.0 1.0 1.0
3.5041134 0.92122638 1.4931587 -0.240678608417511 -0.05701924115419388 -0.9689286351203918 214.0 47.0 1.0 1.0
3.2011557 1.6015563 1.6042979 -0.09197791665792465 -0.1286553144454956 -0.9874148368835449 235.0 48.0 1.0 1.0
3.1916616 1.5553118 1.5907559 -0.0861378163099289 -0.12286219745874405 -0.988678514957428 244.0 48.0 1.0 1.0
2.9915688 1.4990962 1.6124715 -0.12269624322652817 -0.16402526199817657 -0.9787958860397339 255.0 49.0 1.0 1.0
3.0040145 1.4662648 1.6103314 -0.11583766341209412 -0.12106161564588547 -0.9858629703521729 255.0 49.0 1.0 1.0
2.7962937 1.4040354 1.617412 -0.11904796957969666 -0.04948461428284645 -0.991654634475708 250.0 50.0 1.0 1.0
2.8173714 1.3779581 1.620718 -0.12128712981939316 -0.05794157460331917 -0.9909249544143677 255.0 50.0 1.0 1.0
2.6273985 1.3229471 1.6281615 -0.14450016617774963 -0.043566882610321045 -0.9885451793670654 244.0 51.0 1.0 1.0
2.647537 1.2986038 1.6316906 -0.13253028690814972 -0.03137880563735962 -0.9906821846961975 253.0 51.0 1.0 1.0
2.4694316 1.2463 1.6367522 -0.12084946781396866 -0.03692474961280823 -0.9919838309288025 250.0 52.0 1.0 1.0
2.4917579 1.2250894 1.642543 -0.07431936264038086 -0.02726675570011139 -0.9968616366386414 255.0 52.0 1.0 1.0
2.3335447 1.1814108 1.6527226 -0.07319094240665436 -0.06032690033316612 -0.9954917430877686 255.0 53.0 1.0 1.0
2.3368497 1.1525843 1.6459882 -0.11135050654411316 -0.051753535866737366 -0.992432713508606 253.0 53.0 1.0 1.0
2.215477 1.126034 1.6765656 -0.16439145803451538 -0.07367347925901413 -0.9836400151252747 255.0 54.0 1.0 1.0
2.2154255 1.0970504 1.6673052 -0.13230584561824799 -0.04944770038127899 -0.9899747967720032 255.0 54.0 1.0 1.0
2.0716417 1.0569485 1.6744187 -0.11617230623960495 -0.038386911153793335 -0.9924870729446411 255.0 55.0 1.0 1.0
2.0856535 1.0368054 1.6764805 0.1563655436038971 -0.04154428094625473 -0.986825168132782 255.0 55.0 1.0 1.0
1.9880221 1.0193901 1.7168847 0.28776222467422485 -0.05562517046928406 -0.9560850262641907 255.0 56.0 1.0 1.0
1.9930767 0.99584872 1.7117349 0.27404916286468506 -0.08725054562091827 -0.9577496647834778 253.0 56.0 1.0 1.0
1.8505734 0.95435363 1.7087032 -0.31074005365371704 -0.08645544201135635 -0.9465548396110535 250.0 57.0 1.0 1.0
1.849584 0.92953587 1.698289 -0.4260542392730713 -0.11481775343418121 -0.8973821997642517 244.0 57.0 1.0 1.0
1.7200085 0.89235383 1.6995103 -0.09027455747127533 -0.034888867288827896 -0.9953057169914246 235.0 58.0 1.0 1.0
1.7213736 0.8703891 1.6913543 -0.09024471789598465 -0.043328311294317245 -0.9949766993522644 229.0 58.0 1.0 1.0
1.6184078 0.84561437 1.7152897 0.30519694089889526 -0.0251079760491848 -0.9519582390785217 238.0 59.0 1.0 1.0
1.6532756 0.8420167 1.7424906 0.2672845125198364 -0.08167310059070587 -0.9601502418518066 255.0 59.0 1.0 1.0
1.5258784 0.80411988 1.7388481 -0.1493457704782486 -0.046898212283849716 -0.9876722693443298 255.0 60.0 1.0 1.0
1.5218645 0.78183168 1.7244246 -0.1798393279314041 -0.03752119094133377 -0.9829801917076111 255.0 60.0 1.0 1.0
1.4006289 0.74579304 1.7212319 -0.5271631479263306 -0.08139330893754959 -0.8458570837974548 255.0 61.0 1.0 1.0
1.4037145 0.72875482 1.7151523 -0.23287613689899445 -0.10523582994937897 -0.966795802116394 255.0 61.0 1.0 1.0
1.2993524 0.69969839 1.728706 -0.12043183296918869 -0.05083790794014931 -0.9914190769195557 255.0 62.0 1.0 1.0
1.2998803 0.68260026 1.7193921 -0.12043183296918869 -0.05083790794014931 -0.9914190769195557 255.0 62.0 1.0 1.0
1.2029772 0.65700877 1.742283 -0.037838708609342575 0.04402701184153557 -0.9983135461807251 255.0 63.0 1.0 1.0
1.21213 0.64570755 1.7452636 -0.037838708609342575 0.04402701184153557 -0.9983135461807251 255.0 63.0 1.0 1.0
7.4089942 2.1074462 1.1997883 0.04955026134848595 -0.9920222163200378 0.11591686308383942 22.0 38.0 2.0 5.0
7.4383912 2.0319529 1.200184 -0.027585061267018318 -0.9956972002983093 0.08846448361873627 24.0 38.0 2.0 5.0
6.6707988 1.8177112 1.2587701 -0.07156651467084885 -0.9740237593650818 0.2148391753435135 20.0 39.0 2.0 5.0
7.8549318 2.1337514 1.7016771 -0.09722279012203217 -0.9872121810913086 -0.12633228302001953 13.0 40.0 2.0 5.0
1.1559457 0.26313543 -1.5854058 0.1485220044851303 0.03375208005309105 0.988332986831665 255.0 0.0 1.0 1.0
1.1631937 0.2518957 -1.5919325 0.13327845931053162 0.018209116533398628 0.9909113049507141 255.0 0.0 1.0 1.0
1.2750975 0.29811695 -1.6103212 0.11833544820547104 0.00329959555529058 0.9929681420326233 255.0 1.0 1.0 1.0
1.2681514 0.28240424 -1.5980558 0.1183212623000145 -0.015836112201213837 0.9928491711616516 255.0 1.0 1.0 1.0
1.3579299 0.32403904 -1.5893898 0.19340136647224426 0.1187688410282135 0.9739044904708862 255.0 2.0 1.0 1.0
1.3559633 0.3084867 -1.5835325 0.15319746732711792 0.11962540447711945 0.9809283018112183 255.0 2.0 1.0 1.0
1.4688367 0.35694212 -1.5975862 0.24914592504501343 0.037403929978609085 0.9677433967590332 255.0 3.0 1.0 1.0
1.4830841 0.34389386 -1.6093572 0.1504068672657013 0.03818247467279434 0.9878865480422974 255.0 3.0 1.0 1.0
1.5851029 0.39082459 -1.6076654 0.11336499452590942 0.03532328084111214 0.9929254055023193 255.0 4.0 1.0 1.0
1.5945286 0.37537408 -1.6134464 0.11336499452590942 0.03532328084111214 0.9929254055023193 255.0 4.0 1.0 1.0
1.6964657 0.4234716 -1.6075119 0.1496608704328537 0.04886084422469139 0.9875293970108032 255.0 5.0 1.0 1.0
1.7121408 0.40828297 -1.6185143 0.1496608704328537 0.04886084422469139 0.9875293970108032 255.0 5.0 1.0 1.0
1.8255771 0.46072096 -1.6188408 0.12110261619091034 0.03425150364637375 0.9920489192008972 255.0 6.0 1.0 1.0
1.8449212 0.44500241 -1.6320648 0.1471240222454071 0.060692720115184784 0.9872542023658752 255.0 6.0 1.0 1.0
1.9465988 0.49562001 -1.6174747 0.1388188898563385 0.05899365246295929 0.9885590672492981 253.0 7.0 1.0 1.0
1.9606353 0.47728351 -1.6252059 0.12699328362941742 0.04698783904314041 0.9907900094985962 255.0 7.0 1.0 1.0
2.1049337 0.53996593 -1.6406578 0.10915984958410263 0.03258693218231201 0.9934899210929871 255.0 8.0 1.0 1.0
2.104131 0.51622605 -1.6360767 0.09495317190885544 0.01823960430920124 0.9953146576881409 255.0 8.0 1.0 1.0
2.2334576 0.5772773 -1.6337426 0.10024193674325943 -0.0029088722076267004 0.9949588179588318 241.0 9.0 1.0 1.0
2.2646108 0.5599969 -1.6524577 0.09994031488895416 0.07757006585597992 0.991965115070343 255.0 9.0 1.0 1.0
2.4274759 0.63041675 -1.6655807 0.08103740960359573 0.06467529386281967 0.9946105480194092 255.0 10.0 1.0 1.0
2.414392 0.59998614 -1.6525919 0.0594881996512413 0.043081823736429214 0.9972989559173584 244.0 10.0 1.0 1.0
2.6075804 0.68094724 -1.6777483 0.08177381008863449 0.06519044190645218 0.9945166110992432 255.0 11.0 1.0 1.0
2.6045399 0.6509831 -1.6717052 0.10150348395109177 0.0189951341599226 0.9946537613868713 244.0 11.0 1.0 1.0
2.7899666 0.73212057 -1.6809485 0.11882054805755615 0.06780605763196945 0.9905977845191956 241.0 12.0 1.0 1.0
2.8107538 0.7060914 -1.6893018 0.15846915543079376 0.03948989138007164 0.9865739345550537 244.0 12.0 1.0 1.0
3.0142946 0.79376787 -1.6997731 0.0899161696434021 0.04459640011191368 0.9949504137039185 253.0 13.0 1.0 1.0
3.008673 0.7585721 -1.6924602 0.11293815076351166 -0.014851556159555912 0.993490993976593 235.0 13.0 1.0 1.0
3.2170792 0.84957379 -1.6951561 0.13011856377124786 0.06606034189462662 0.9892953038215637 223.0 14.0 1.0 1.0
3.2429411 0.82006627 -1.7045777 0.13374300301074982 0.036913298070430756 0.990328311920166 223.0 14.0 1.0 1.0
3.4980099 0.92644572 -1.7190681 0.0956699475646019 0.06619739532470703 0.9932096004486084 217.0 15.0 1.0 1.0
3.5318983 0.89584094 -1.7314521 0.11455274373292923 0.0604383647441864 0.9915769100189209 223.0 15.0 1.0 1.0
3.3263834 1.6353686 -1.6317836 0.1608714461326599 0.04301531985402107 0.98603755235672 211.0 16.0 1.0 1.0
3.3696129 1.6129603 -1.6450939 0.10561028867959976 0.0638572946190834 0.9923551678657532 223.0 16.0 1.0 1.0
3.629982 1.7783514 -1.6496068 0.1186659038066864 0.040779292583465576 0.9920965433120728 193.0 17.0 1.0 1.0
3.6549537 1.7432898 -1.6531042 0.17643029987812042 0.01916668750345707 0.9841265082359314 199.0 17.0 1.0 1.0
3.9742718 1.9393407 -1.6663328 0.14311359822750092 0.03619906306266785 0.9890440702438354 190.0 18.0 1.0 1.0
4.0145111 1.9071161 -1.6753049 0.22057652473449707 0.0618177093565464 0.9734087586402893 187.0 18.0 1.0 1.0
4.280704 2.0815728 -1.6493464 0.7564920783042908 -0.07128354907035828 0.6501064896583557 217.0 19.0 1.0 1.0
4.3977933 2.0817959 -1.6865116 0.8554997444152832 0.016457360237836838 0.5175415873527527 172.0 19.0 1.0 1.0
4.2968888 2.0830352 -1.5142928 0.9779478311538696 -0.17945249378681183 -0.10684026777744293 247.0 20.0 1.0 1.0
4.5080147 2.1273439 -1.5812221 0.9901758432388306 0.10173718631267548 -0.09592380374670029 211.0 20.0 1.0 1.0
4.2781968 2.0676408 -1.3708122 0.9545068740844727 -0.25191694498062134 -0.15954482555389404 247.0 21.0 1.0 1.0
4.3481927 2.0455279 -1.3868613 0.9854539036750793 0.10748942941427231 -0.1316307783126831 97.0 21.0 1.0 1.0
4.3046103 2.0740724 -1.2432632 0.972601056098938 -0.19830924272537231 -0.12132874876260757 255.0 22.0 1.0 1.0
4.3540311 2.0419338 -1.2518659 0.9938348531723022 -0.05269744247198105 -0.0975458025932312 205.0 22.0 1.0 1.0
4.2640042 2.04919 -1.1007545 0.9531918168067932 -0.276949018239975 -0.12134487181901932 255.0 23.0 1.0 1.0
4.3310189 2.0258048 -1.113063 0.9857155084609985 -0.09673063457012177 -0.13786955177783966 229.0 23.0 1.0 1.0
4.2721767 2.0487511 -0.9740662 0.9433308839797974 -0.31679391860961914 -0.09883544594049454 255.0 24.0 1.0 1.0
4.3536782 2.032007 -0.98827255 0.9761655926704407 -0.18173791468143463 -0.11862530559301376 253.0 24.0 1.0 1.0
4.2563972 2.0359311 -0.84321898 0.9348403215408325 -0.331313818693161 -0.12768948078155518 255.0 25.0 1.0 1.0
4.3452454 2.0227692 -0.85709292 0.9852308630943298 -0.1406155526638031 -0.09771136939525604 255.0 25.0 1.0 1.0
4.2437549 2.0264916 -0.71555954 0.8874492049217224 -0.4549998342990875 -0.07354668527841568 255.0 26.0 1.0 1.0
4.31848 2.006896 -0.72509718 0.9669695496559143 -0.23664161562919617 -0.09471306204795837 253.0 26.0 1.0 1.0
4.253283 2.0267673 -0.59406066 0.9025790095329285 -0.4244338870048523 -0.07215914130210876 255.0 27.0 1.0 1.0
4.2958293 1.9920943 -0.59760225 0.95989990234375 -0.24740751087665558 -0.13183939456939697 253.0 27.0 1.0 1.0
4.2237329 2.0093448 -0.4681302 0.8800510764122009 -0.4731086194515228 -0.040967464447021484 255.0 28.0 1.0 1.0
4.3131323 1.9967566 -0.47619402 0.9616736769676208 -0.2528970539569855 -0.10595644265413284 255.0 28.0 1.0 1.0
4.2668085 2.0264907 -0.35065418 0.8637441992759705 -0.49655288457870483 -0.0859137773513794 255.0 29.0 1.0 1.0
4.3058753 1.9900471 -0.35267788 0.9199386239051819 -0.3817286193370819 -0.08942105621099472 255.0 29.0 1.0 1.0
4.2563009 2.0190756 -0.22901167 0.8248462080955505 -0.5618094801902771 -0.06323583424091339 255.0 30.0 1.0 1.0
4.2989607 1.9844333 -0.23071526 0.9116224646568298 -0.40123245120048523 -0.0892023965716362 255.0 30.0 1.0 1.0
4.246572 2.0120511 -0.10874129 0.8049181699752808 -0.592023491859436 -0.04018539935350418 255.0 31.0 1.0 1.0
4.2891922 1.9775213 -0.10983311 0.8854219317436218 -0.4543568789958954 -0.09791683405637741 255.0 31.0 1.0 1.0
5.0128889 1.2747809 0.0028166317 -0.0665002316236496 -0.9977532625198364 -0.008135603740811348 12.0 32.0 1.0 2.0
5.0622516 1.2840554 0.13587138 -0.02777703106403351 -0.9798587560653687 0.1977502405643463 8.0 33.0 1.0 2.0
5.0884614 1.2892923 0.27054712 0.03993553668260574 -0.9940748810768127 0.10109482705593109 7.0 34.0 1.0 2.0
5.1308312 1.2976497 0.40840217 0.004917297977954149 -0.9987711906433105 0.04931578412652016 13.0 35.0 1.0 2.0
9.7032757 2.5567687 1.0378617 -0.07496850937604904 -0.9923981428146362 -0.09760013222694397 16.0 36.0 1.0 5.0
9.8221979 2.478497 1.04669 -0.11797928065061569 -0.9600164294242859 -0.25386887788772583 14.0 36.0 1.0 5.0
5.0798373 1.3347647 0.67834401 -0.04243467003107071 -0.9638977646827698 -0.2628697156906128 229.0 37.0 1.0 1.0
5.0589819 1.2728541 0.67314434 -0.02735053561627865 -0.9758941531181335 -0.2165241241455078 199.0 37.0 1.0 1.0
5.1311321 1.3439057 0.82373506 0.02899838238954544 -0.9796851277351379 0.19843395054340363 12.0 38.0 1.0 2.0
5.1603355 1.2940345 0.82563192 0.012242048047482967 -0.997025728225708 0.07609086483716965 19.0 38.0 1.0 2.0
5.1134591 1.3358797 0.96067673 0.08068545162677765 -0.9866171479225159 0.14169105887413025 10.0 39.0 1.0 2.0
5.13871 1.2852252 0.96226388 -0.10850752145051956 -0.9882460832595825 0.107683464884758 18.0 39.0 1.0 2.0
7.8525982 1.9577591 1.6901923 -0.08778403699398041 -0.9861355423927307 -0.1408211588859558 15.0 40.0 1.0 5.0
5.4861269 1.4228793 1.3381127 -0.08282732963562012 -0.9790689945220947 -0.18591254949569702 30.0 41.0 1.0 5.0
5.4668508 1.357042 1.3292121 -0.08615082502365112 -0.9830089211463928 -0.16208496689796448 29.0 41.0 1.0 5.0
5.4706302 1.413132 1.4899879 -0.05084530636668205 -0.975445568561554 -0.21429118514060974 31.0 42.0 1.0 5.0
5.5228047 1.3652012 1.4996058 -0.05700422823429108 -0.9752041101455688 -0.2138398140668869 31.0 42.0 1.0 5.0
4.651433 1.1956284 1.4025397 -0.08752238005399704 -0.08071955293416977 -0.9928868412971497 130.0 43.0 1.0 1.0
4.6414614 1.1414891 1.3952814 -0.16922394931316376 -0.08388789743185043 -0.9820010662078857 142.0 43.0 1.0 1.0
4.3311324 1.1078471 1.4346737 -0.11333293467760086 -0.12289708852767944 -0.9859269261360168 136.0 44.0 1.0 1.0
4.331532 1.0598576 1.4305203 -0.09297578036785126 -0.0966939851641655 -0.9909619688987732 118.0 44.0 1.0 1.0
4.202229 1.0695876 1.5203749 -0.0618453323841095 -0.9189906716346741 -0.38939863443374634 255.0 45.0 1.0 1.0
4.1913404 1.0203148 1.511953 -0.06822604686021805 -0.8969743847846985 -0.4367862641811371 255.0 45.0 1.0 1.0
3.7643745 0.95262814 1.4782938 0.04979903623461723 -0.05171632394194603 -0.9974193572998047 139.0 46.0 1.0 1.0
3.7670157 0.91154331 1.4750266 -0.07560279965400696 -0.11581370234489441 -0.9903895258903503 172.0 46.0 1.0 1.0
3.502902 0.8819598 1.488289 -0.044653553515672684 0.010214452631771564 -0.9989503026008606 226.0 47.0 1.0 1.0
3.5228648 0.8479743 1.4924855 -0.044653553515672684 0.010214452631771564 -0.9989503026008606 220.0 47.0 1.0 1.0
3.1979821 1.5173131 1.585482 -0.1397928148508072 -0.0029214315582066774 -0.9901764988899231 244.0 48.0 1.0 1.0
3.2039027 1.4793055 1.5801487 -0.15331700444221497 -0.01704302243888378 -0.9880300760269165 238.0 48.0 1.0 1.0
2.9965315 1.4241058 1.5978196 -0.11664789170026779 -0.0641486644744873 -0.99109947681427 253.0 49.0 1.0 1.0
3.008157 1.3912926 1.5956887 -0.11715897917747498 -0.08485130220651627 -0.9894817471504211 255.0 49.0 1.0 1.0
2.8221254 1.3440061 1.614884 -0.0713227316737175 -0.035233572125434875 -0.9968308210372925 250.0 50.0 1.0 1.0
2.8297479 1.3115485 1.6108358 -0.15130770206451416 -0.051653843373060226 -0.98713618516922 253.0 50.0 1.0 1.0
2.6516206 1.2664952 1.6255751 -0.13488414883613586 -0.052807167172431946 -0.9894531965255737 255.0 51.0 1.0 1.0
2.6807449 1.2461956 1.6349266 -0.07923287153244019 -0.059702109545469284 -0.99506676197052 255.0 51.0 1.0 1.0
2.49524 1.1946844 1.636145 -0.13925710320472717 -0.025242231786251068 -0.9899344444274902 253.0 52.0 1.0 1.0
2.5077629 1.1686493 1.6358179 -0.10047977417707443 -0.025361601263284683 -0.9946157932281494 255.0 52.0 1.0 1.0
2.3763001 1.1414452 1.6649886 -0.14474210143089294 -0.030782898887991905 -0.9889904856681824 255.0 53.0 1.0 1.0
2.3576639 1.1023364 1.643281 -0.14452484250068665 -0.06280361860990524 -0.9875060319900513 255.0 53.0 1.0 1.0
2.2149532 1.0682491 1.6580983 -0.11501941084861755 -0.03192071616649628 -0.9928501844406128 255.0 54.0 1.0 1.0
