ply
format ascii 1.0
element vertex 429
property float x
property float y
property float z
property float nx
property float ny
property float nz
property float intensity
property float ring
property float return
property float label
end_header
2.0049829 -15.059361 0.051403072 -0.22814802825450897 -0.041916623711586 -0.9727238416671753 29.0 32.0 1.0 1.0
1.591633 -13.01789 0.37894991 -0.10213275998830795 -0.04508909210562706 -0.9937483668327332 49.0 33.0 1.0 1.0
1.7209936 -12.949001 0.37676859 -0.13434627652168274 -0.06297018378973007 -0.9889315962791443 50.0 33.0 1.0 1.0
1.3280734 -10.86723 0.59560114 -0.15483194589614868 -0.0915808230638504 -0.9836868643760681 44.0 34.0 1.0 1.0
1.4344032 -10.797327 0.59199035 -0.1331712007522583 -0.028032369911670685 -0.9906965494155884 43.0 34.0 1.0 1.0
1.1436023 -9.3484459 0.75359482 -0.1145789623260498 -0.0866631269454956 -0.9896268248558044 40.0 35.0 1.0 1.0
1.2214193 -9.1858053 0.74097174 -0.2123890370130539 -0.004592554178088903 -0.9771744012832642 40.0 35.0 1.0 1.0
0.99460608 -8.145916 0.86812878 -0.203337624669075 -0.11409222334623337 -0.9724385738372803 37.0 36.0 1.0 1.0
1.0777191 -8.1193266 0.86602032 -0.07256239652633667 0.023481229320168495 -0.9970874190330505 37.0 36.0 1.0 1.0
0.88898021 -7.2945547 0.96923488 -0.11017211526632309 0.007253972813487053 -0.9938860535621643 37.0 37.0 1.0 1.0
0.95485288 -7.2062731 0.95838434 -0.16239944100379944 0.05013145133852959 -0.985450804233551 37.0 37.0 1.0 1.0
0.83467674 -6.8717055 1.094039 -0.13993550837039948 -0.9403756260871887 -0.3100188076496124 118.0 38.0 1.0 1.0
0.89204764 -6.7529755 1.0761818 -0.021967904642224312 -0.8858333826065063 -0.4634830057621002 151.0 38.0 1.0 1.0
0.76067489 -6.2833619 1.1679487 -0.09972085058689117 0.009850509464740753 -0.9949667453765869 178.0 39.0 1.0 1.0
0.82227027 -6.243916 1.1618099 -0.14076954126358032 -0.044631876051425934 -0.9890358448028564 151.0 39.0 1.0 1.0
0.69623947 -5.7618237 1.2272027 -0.16569863259792328 -0.03496430814266205 -0.985556423664093 184.0 40.0 1.0 1.0
0.75342321 -5.7310033 1.2219335 -0.10958605259656906 -0.003679128596559167 -0.993970513343811 184.0 40.0 1.0 1.0
0.63780802 -5.3035779 1.2757943 -0.13058115541934967 0.013111867941915989 -0.9913508892059326 211.0 41.0 1.0 1.0
0.69073057 -5.277389 1.2708684 -0.07297873497009277 -0.05315800756216049 -0.9959157705307007 205.0 41.0 1.0 1.0
0.56218678 -4.697412 1.2605673 -0.11699893325567245 0.13095854222774506 -0.9844598174095154 37.0 42.0 1.0 1.0
0.63578123 -4.8791256 1.310829 -0.061272040009498596 -0.12438559532165527 -0.9903403520584106 193.0 42.0 1.0 1.0
0.51970404 -4.3697476 1.2979149 -0.1338527947664261 0.02991626225411892 -0.990549623966217 226.0 43.0 1.0 1.0
0.56192547 -4.3375049 1.2897595 0.09938720613718033 0.5465182065963745 -0.8315287232398987 88.0 43.0 1.0 1.0
0.48056668 -4.0661745 1.3262883 -0.12977628409862518 -0.0994177833199501 -0.9865466952323914 232.0 44.0 1.0 1.0
0.52598363 -4.0836329 1.3334781 -0.13041889667510986 0.007339469622820616 -0.9914318323135376 247.0 44.0 1.0 1.0
0.45306075 -3.857574 1.3738045 -0.17596986889839172 -0.01191006414592266 -0.9843235611915588 255.0 45.0 1.0 1.0
0.48953825 -3.8227715 1.3629243 -0.11769169569015503 -0.1436779499053955 -0.9826012849807739 255.0 45.0 1.0 1.0
0.41967863 -3.6014235 1.3920958 -0.12619973719120026 -0.03365407511591911 -0.99143385887146 255.0 46.0 1.0 1.0
0.45966753 -3.6154258 1.3990819 -0.23542675375938416 -0.09972936660051346 -0.9667617082595825 255.0 46.0 1.0 1.0
0.39941397 -3.449121 1.4423082 -0.19540287554264069 -0.016429580748081207 -0.9805853962898254 255.0 47.0 1.0 1.0
0.43591291 -3.4484923 1.4436637 -0.21479637920856476 -0.09715703129768372 -0.9718142747879028 255.0 47.0 1.0 1.0
0.97778815 -3.0293233 1.425163 -0.07769489288330078 -0.9785321950912476 -0.190887913107872 238.0 48.0 1.0 1.0
0.99434137 -2.9739933 1.4037654 -0.06220053881406784 -0.8473733067512512 -0.5273419618606567 244.0 48.0 1.0 1.0
0.95878452 -2.9585319 1.4972359 -0.04611044004559517 -0.11152774095535278 -0.9926909804344177 255.0 49.0 1.0 1.0
0.98276603 -2.9279149 1.4866881 -0.12200160324573517 -0.8615583181381226 -0.49278074502944946 255.0 49.0 1.0 1.0
0.90868109 -2.7910786 1.5159305 -0.14377084374427795 -0.051939159631729126 -0.9882470965385437 250.0 50.0 1.0 1.0
0.93438774 -2.7713914 1.5102979 -0.14191704988479614 -0.16807876527309418 -0.9755045175552368 250.0 50.0 1.0 1.0
0.86977232 -2.6577432 1.5464839 -0.19804245233535767 -0.006010601297020912 -0.9801750183105469 255.0 51.0 1.0 1.0
0.89524382 -2.6419446 1.5424932 -0.17495772242546082 -0.02291039377450943 -0.9843094348907471 255.0 51.0 1.0 1.0
0.82513237 -2.5083108 1.5611986 -0.1525052934885025 -0.03436938673257828 -0.9877048134803772 255.0 52.0 1.0 1.0
0.84795642 -2.4898422 1.5549777 -0.11883137375116348 -0.03452976793050766 -0.992313802242279 255.0 52.0 1.0 1.0
0.78688526 -2.3755214 1.5799909 -0.14318546652793884 -0.05060649663209915 -0.9884011745452881 255.0 53.0 1.0 1.0
0.8072626 -2.3544431 1.5713401 -0.12641948461532593 -0.0689287781715393 -0.9895792007446289 255.0 53.0 1.0 1.0
0.74853259 -2.2428551 1.5937873 -0.10404053330421448 -0.016999375075101852 -0.9944278597831726 255.0 54.0 1.0 1.0
0.76757836 -2.2224441 1.5847414 -0.10038550943136215 -0.013306541368365288 -0.9948595762252808 255.0 54.0 1.0 1.0
0.70978779 -2.1109126 1.6020762 -0.09953875839710236 -0.0854528397321701 -0.9913576245307922 255.0 55.0 1.0 1.0
0.7349894 -2.112648 1.6089959 -0.16488704085350037 -0.08470229804515839 -0.9826687574386597 255.0 55.0 1.0 1.0
0.67275316 -1.9824805 1.6073434 -0.18646866083145142 0.2299603968858719 -0.9551689028739929 247.0 56.0 1.0 1.0
0.69130701 -1.9694295 1.6023829 -0.18646866083145142 0.2299603968858719 -0.9551689028739929 250.0 56.0 1.0 1.0
0.63387948 -1.8488153 1.6023678 0.007938416674733162 0.12251324951648712 -0.9924352169036865 247.0 57.0 1.0 1.0
0.66037709 -1.8625628 1.6200492 0.07906433194875717 0.48319143056869507 -0.8719373345375061 247.0 57.0 1.0 1.0
0.58671796 -1.6938473 1.5706118 -0.18090714514255524 0.0763925313949585 -0.9805287718772888 255.0 58.0 1.0 1.0
0.59623945 -1.6650475 1.5494403 -0.1464289426803589 0.061833254992961884 -0.9872867465019226 217.0 58.0 1.0 1.0
0.56265521 -1.6042536 1.5951869 -0.12786522507667542 -0.11200019717216492 -0.985447347164154 255.0 59.0 1.0 1.0
0.57438469 -1.5846556 1.5814267 -0.12786522507667542 -0.11200019717216492 -0.985447347164154 253.0 59.0 1.0 1.0
0.52837509 -1.4838773 1.5859351 -0.1461113691329956 -0.037268854677677155 -0.9885659217834473 255.0 60.0 1.0 1.0
0.54966044 -1.4942126 1.6029078 -0.1454981118440628 -0.09876314550638199 -0.9844167232513428 255.0 60.0 1.0 1.0
0.50533372 -1.3949277 1.607053 -0.1564657837152481 -0.09484531730413437 -0.983119010925293 255.0 61.0 1.0 1.0
0.52555364 -1.4048854 1.6246352 -0.20029357075691223 -0.09951630234718323 -0.9746686816215515 255.0 61.0 1.0 1.0
0.48137745 -1.3041813 1.6258377 -0.11316605657339096 -0.030739139765501022 -0.9931004643440247 255.0 62.0 1.0 1.0
0.49586657 -1.301585 1.628824 -0.11316605657339096 -0.030739139765501022 -0.9931004643440247 255.0 62.0 1.0 1.0
0.45552492 -1.2063762 1.635998 -0.1459803432226181 -0.05568177253007889 -0.9877192378044128 255.0 63.0 1.0 1.0
0.46536723 -1.194712 1.62652 -0.14578349888324738 -0.07607263326644897 -0.9863874316215515 255.0 63.0 1.0 1.0
0.053811435 -1.1911577 -1.5822989 0.13415591418743134 0.018773656338453293 0.9907823801040649 255.0 0.0 1.0 1.0
0.067418568 -1.209667 -1.6079166 0.13415591418743134 0.018773656338453293 0.9907823801040649 255.0 0.0 1.0 1.0
0.069847748 -1.3272194 -1.6223583 0.07972586154937744 0.04783916473388672 0.9956681728363037 255.0 1.0 1.0 1.0
0.082997099 -1.3136661 -1.6069617 0.10879869014024734 0.05634566396474838 0.992465615272522 255.0 1.0 1.0 1.0
0.083737195 -1.4295965 -1.6186789 0.13409341871738434 0.03582662716507912 0.9903208613395691 255.0 2.0 1.0 1.0
0.098394156 -1.4232551 -1.6127659 0.13409341871738434 0.03582662716507912 0.9903208613395691 255.0 2.0 1.0 1.0
0.099187292 -1.551141 -1.6312642 0.12651421129703522 0.0602111890912056 0.9901357889175415 255.0 3.0 1.0 1.0
0.11527783 -1.5471677 -1.6284527 0.12066424638032913 0.05739017203450203 0.9910330176353455 255.0 3.0 1.0 1.0
0.1142908 -1.6756042 -1.6425294 0.14985446631908417 0.0651601180434227 0.9865585565567017 255.0 4.0 1.0 1.0
0.13189016 -1.6742173 -1.6426196 0.12745381891727448 0.03810922056436539 0.9911121129989624 255.0 4.0 1.0 1.0
0.13034883 -1.8038875 -1.6514612 0.10171214491128922 0.054281171411275864 0.9933319091796875 255.0 5.0 1.0 1.0
0.14929141 -1.802325 -1.6515582 0.15161052346229553 0.10467848926782608 0.9828818440437317 253.0 5.0 1.0 1.0
0.14688 -1.9389546 -1.6606492 0.15922872722148895 0.055954739451408386 0.9856547713279724 253.0 6.0 1.0 1.0
0.16828606 -1.9493351 -1.6711408 0.12232212722301483 0.03954464569687843 0.9917023777961731 255.0 6.0 1.0 1.0
0.16474232 -2.093538 -1.6796421 0.11754500865936279 0.05975186079740524 0.9912682771682739 255.0 7.0 1.0 1.0
0.18671726 -2.0915978 -1.6797539 0.14543138444423676 0.08797680586576462 0.9854490160942078 253.0 7.0 1.0 1.0
0.1827798 -2.2495184 -1.6925409 0.10750798881053925 0.02561517432332039 0.993874192237854 255.0 8.0 1.0 1.0
0.20902804 -2.2760651 -1.7142526 0.10728396475315094 0.06940224021673203 0.9918032288551331 255.0 8.0 1.0 1.0
0.20387843 -2.4329741 -1.7174269 0.12517867982387543 0.04914646968245506 0.9909161925315857 253.0 9.0 1.0 1.0
0.22817472 -2.4175725 -1.7083541 0.11366169899702072 0.061904825270175934 0.9915890693664551 244.0 9.0 1.0 1.0
0.22339676 -2.6091142 -1.7272782 0.08972257375717163 0.04502537101507187 0.9949485063552856 244.0 10.0 1.0 1.0
0.25108978 -2.609853 -1.7296185 0.08971509337425232 0.046834055334329605 0.9948656558990479 238.0 10.0 1.0 1.0
0.24682385 -2.8173192 -1.7485265 0.15994760394096375 0.026379531249403954 0.9867729544639587 244.0 11.0 1.0 1.0
0.27670929 -2.817862 -1.7507788 0.12161532044410706 0.01784084364771843 0.9924169778823853 238.0 11.0 1.0 1.0
0.27170023 -3.0387926 -1.7655791 0.12250999361276627 0.0416443794965744 0.9915932416915894 241.0 12.0 1.0 1.0
0.30219075 -3.0218945 -1.7577291 0.12243093550205231 0.05497220158576965 0.9909533858299255 229.0 12.0 1.0 1.0
0.29794922 -3.279691 -1.7830814 0.12759025394916534 0.011828572489321232 0.9917564392089844 229.0 13.0 1.0 1.0
0.33234113 -3.2762849 -1.783255 0.12831605970859528 0.04223259538412094 0.9908336997032166 223.0 13.0 1.0 1.0
0.32841349 -3.5658937 -1.8110639 0.10182464122772217 0.04846927523612976 0.9936208724975586 223.0 14.0 1.0 1.0
0.3639769 -3.5443962 -1.8022299 0.10166377574205399 0.009795189835131168 0.9947705864906311 202.0 14.0 1.0 1.0
0.36019269 -3.8588796 -1.8274227 0.15398213267326355 0.051282454282045364 0.9867419004440308 190.0 15.0 1.0 1.0
0.4006488 -3.8547876 -1.8276267 0.17458055913448334 0.039751339703798294 0.9838401675224304 187.0 15.0 1.0 1.0
1.2681793 -4.2256908 -1.9429243 0.08108538389205933 0.04266956448554993 0.995793342590332 160.0 16.0 1.0 1.0
1.320058 -4.2365303 -1.9543933 0.10837987810373306 0.03767598047852516 0.9933953881263733 175.0 16.0 1.0 1.0
1.3968275 -4.6697125 -1.9899783 0.13208596408367157 0.02333701029419899 0.9909635186195374 133.0 17.0 1.0 1.0
1.4479216 -4.6617846 -1.9932098 0.15977321565151215 0.07550311833620071 0.9842619895935059 118.0 17.0 1.0 1.0
1.5530565 -5.2125649 -2.0505214 0.16265928745269775 0.04968508705496788 0.9854305982589722 52.0 18.0 1.0 1.0
1.6175905 -5.228076 -2.0634494 0.1892121136188507 0.06176497042179108 0.9799917340278625 49.0 18.0 1.0 1.0
1.7527219 -5.9023852 -2.1346593 0.17391705513000488 0.06101479381322861 0.9828683137893677 33.0 19.0 1.0 1.0
1.8189692 -5.8980279 -2.1401629 0.16352325677871704 0.06328190118074417 0.9845077395439148 34.0 19.0 1.0 1.0
2.0008922 -6.7564621 -2.2355616 0.11955482512712479 0.02076665125787258 0.9926103949546814 33.0 20.0 1.0 1.0
2.0985267 -6.8224692 -2.2648847 0.05307891592383385 0.02001200243830681 0.9983897805213928 34.0 20.0 1.0 1.0
2.35361 -7.969254 -2.3978975 0.11666147410869598 0.059033941477537155 0.9914156794548035 37.0 21.0 1.0 1.0
2.4426589 -7.9624009 -2.4037986 0.09010522812604904 0.031107068061828613 0.9954463243484497 37.0 21.0 1.0 1.0
2.7956069 -9.4919024 -2.5749395 0.08384963870048523 -0.009669017978012562 0.9964315891265869 40.0 22.0 1.0 1.0
2.9085369 -9.5063772 -2.5874507 0.1814539134502411 0.008721604011952877 0.9833608269691467 37.0 22.0 1.0 1.0
4.1352577 -14.069838 -3.4115782 0.12414959073066711 0.06361635774374008 0.9902220964431763 14.0 23.0 1.0 1.0
4.1308546 -14.076276 -3.0150366 -0.9188284873962402 0.34853607416152954 0.1851402372121811 193.0 24.0 1.0 1.0
4.3181415 -14.163243 -3.0438485 -0.4376401901245117 0.8978206515312195 -0.04887969791889191 82.0 24.0 1.0 1.0
4.135426 -14.122522 -2.628638 -0.9718629717826843 0.20024412870407104 0.124034583568573 214.0 25.0 1.0 1.0
4.3141336 -14.180003 -2.6482604 -1.0 3.6366920539876446e-05 -4.0994767914526165e-05 145.0 25.0 1.0 1.0
4.136178 -14.146774 -2.2411392 -0.9835723638534546 0.13351748883724213 0.12148473411798477 214.0 26.0 1.0 1.0
4.3094668 -14.185797 -2.2550008 -0.884328305721283 0.4668566882610321 -0.0028828619979321957 151.0 26.0 1.0 1.0
4.1396995 -14.17148 -1.859816 -0.986870288848877 0.07868045568466187 0.14105458557605743 208.0 27.0 1.0 1.0
4.3133016 -14.210789 -1.8714486 -0.9079354405403137 0.4167242646217346 0.04465726390480995 181.0 27.0 1.0 1.0
4.1502743 -14.229641 -1.4815116 -0.9952085614204407 0.043089400976896286 0.0877685472369194 223.0 28.0 1.0 1.0
4.3095002 -14.219593 -1.4857309 -0.8970160484313965 0.42839398980140686 0.1088147684931755 190.0 28.0 1.0 1.0
4.1530037 -14.242543 -1.0992956 -0.9950310587882996 -0.0670652836561203 0.07358957827091217 208.0 29.0 1.0 1.0
4.323935 -14.270741 -1.1055497 -0.9482415318489075 0.300842821598053 0.10164433717727661 211.0 29.0 1.0 1.0
4.1672163 -14.304178 -0.72208172 -0.9797006845474243 -0.1255890429019928 0.15624962747097015 220.0 30.0 1.0 1.0
4.3283753 -14.297951 -0.72466046 -0.9706249237060547 0.22350290417671204 0.08907172083854675 199.0 30.0 1.0 1.0
4.1747551 -14.324391 -0.34295177 -0.9779244065284729 -0.1619013100862503 0.132105752825737 214.0 31.0 1.0 1.0
4.3338065 -14.310484 -0.34433055 -0.9819082021713257 0.1288047879934311 0.13880087435245514 214.0 31.0 1.0 1.0
1.6664827 -16.448036 0.058826488 -0.3618297874927521 -0.10965842008590698 -0.9257721900939941 15.0 32.0 1.0 1.0
1.6944498 -15.141734 0.053316884 -0.2412254363298416 -0.014639396220445633 -0.970358669757843 20.0 32.0 1.0 1.0
1.3302742 -13.159682 0.38373414 -0.4170732796192169 -0.07119768857955933 -0.906079888343811 49.0 33.0 1.0 1.0
1.4599965 -13.073523 0.3809517 -0.2089555710554123 -0.13297386467456818 -0.9688423871994019 49.0 33.0 1.0 1.0
1.1045223 -10.932308 0.59905744 -0.13510163128376007 -0.06468357145786285 -0.9887180924415588 46.0 34.0 1.0 1.0
1.2162552 -10.896354 0.5971753 -0.19367557764053345 -0.09110920876264572 -0.9768259525299072 45.0 34.0 1.0 1.0
0.94905609 -9.3821402 0.75565159 -0.22883044183254242 -0.18110844492912292 -0.956470787525177 38.0 35.0 1.0 1.0
1.0388012 -9.2964382 0.74908167 -0.19694967567920685 -0.0704561099410057 -0.9778786897659302 38.0 35.0 1.0 1.0
0.85522103 -8.4735317 0.90199345 -0.16382530331611633 -0.5573816895484924 -0.8139330744743347 35.0 36.0 1.0 1.0
0.92401963 -8.2862644 0.88257217 -0.1277025192975998 0.307386577129364 -0.9429769515991211 37.0 36.0 1.0 1.0
0.77681231 -7.7138882 1.0235629 -0.18821687996387482 -0.4712482988834381 -0.8616840243339539 79.0 37.0 1.0 1.0
0.85399276 -7.6738548 1.0189657 -0.12513092160224915 -0.9810373783111572 -0.1480134278535843 118.0 37.0 1.0 1.0
0.70028847 -6.9818811 1.1098623 -0.15579792857170105 -0.0014572007348760962 -0.9877878427505493 148.0 38.0 1.0 1.0
0.76634437 -6.9113965 1.0994884 0.021874146535992622 0.06487318128347397 -0.9976537227630615 103.0 38.0 1.0 1.0
0.63266522 -6.3329902 1.1752321 -0.11959440261125565 -0.06622342765331268 -0.990611732006073 139.0 39.0 1.0 1.0
0.69673693 -6.3065319 1.1712645 -0.08997847884893417 -0.002212086459621787 -0.9959412813186646 163.0 39.0 1.0 1.0
0.55931926 -5.6114445 1.193069 0.34438204765319824 -0.4617688059806824 0.8174170851707458 36.0 40.0 1.0 1.0
0.63945705 -5.7998242 1.2342063 -0.22549980878829956 -0.16199703514575958 -0.960680365562439 211.0 40.0 1.0 1.0
0.50337863 -5.0794668 1.2196522 -0.09486421942710876 0.23602336645126343 -0.9671058654785156 181.0 41.0 1.0 1.0
0.55648905 -5.0739827 1.2193851 -0.2657570540904999 0.20454463362693787 -0.9420905113220215 36.0 41.0 1.0 1.0
0.46387622 -4.7079997 1.2611213 -0.15295501053333282 -0.09502216428518295 -0.9836542010307312 175.0 42.0 1.0 1.0
0.51100069 -4.6837411 1.2557178 -0.08408874273300171 0.3684770464897156 -0.9258259534835815 166.0 42.0 1.0 1.0
0.43124852 -4.4100571 1.3074958 -0.14680232107639313 -0.03422870859503746 -0.988573431968689 238.0 43.0 1.0 1.0
0.47445512 -4.3786721 1.2993331 -0.14516539871692657 -0.1527165323495865 -0.9775503873825073 220.0 43.0 1.0 1.0
0.39768973 -4.0979066 1.3341743 -0.1522206962108612 -0.030836623162031174 -0.9878654479980469 226.0 44.0 1.0 1.0
0.44052407 -4.0935888 1.3339586 -0.17553609609603882 -0.09837371110916138 -0.9795457124710083 232.0 44.0 1.0 1.0
0.37234774 -3.8660483 1.3742605 -0.1663352996110916 -0.04002755880355835 -0.985256552696228 255.0 45.0 1.0 1.0
0.41034609 -3.8395164 1.3660452 -0.16601863503456116 -0.07348447293043137 -0.9833808541297913 244.0 45.0 1.0 1.0
0.34681728 -3.6352701 1.4025704 -0.13586145639419556 -0.11068067699670792 -0.9845260977745056 255.0 46.0 1.0 1.0
0.38283673 -3.6129506 1.3952025 -0.1410401463508606 -0.0631580650806427 -0.987987220287323 244.0 46.0 1.0 1.0
0.32760748 -3.4602318 1.4442531 -0.2085782289505005 -0.07774510979652405 -0.9749106764793396 255.0 47.0 1.0 1.0
0.3633768 -3.4530158 1.4425346 -0.1861550360918045 -0.006832694634795189 -0.9824965596199036 255.0 47.0 1.0 1.0
0.94365889 -3.1468389 1.4713092 -0.15911796689033508 -0.1503126621246338 -0.9757497906684875 247.0 48.0 1.0 1.0
0.97541314 -3.1333785 1.4695326 -0.12412220239639282 -0.9627475738525391 -0.24023067951202393 250.0 48.0 1.0 1.0
0.8988508 -2.9846668 1.5010332 -0.13241976499557495 -0.003692456753924489 -0.9911868572235107 255.0 49.0 1.0 1.0
0.92891794 -2.9717324 1.4991635 -0.1229027658700943 -0.11080007255077362 -0.9862141609191895 255.0 49.0 1.0 1.0
0.85430259 -2.8229022 1.5235848 -0.15142188966274261 0.045524198561906815 -0.9874204397201538 255.0 50.0 1.0 1.0
0.88268709 -2.8104942 1.5216222 -0.15142188966274261 0.045524198561906815 -0.9874204397201538 255.0 50.0 1.0 1.0
0.81305426 -2.6718287 1.5448372 -0.07200458645820618 -0.014082297682762146 -0.9973047971725464 255.0 51.0 1.0 1.0
0.83986986 -2.6599143 1.5427811 -0.18249033391475677 -0.013881855644285679 -0.9831096529960632 255.0 51.0 1.0 1.0
0.77256995 -2.5248408 1.5614733 -0.13632354140281677 -0.06447938829660416 -0.9885637164115906 255.0 52.0 1.0 1.0
0.79473287 -2.5035737 1.5532117 -0.13632354140281677 -0.06447938829660416 -0.9885637164115906 253.0 52.0 1.0 1.0
0.73411965 -2.3815856 1.5738392 -0.08545670658349991 -0.03544919192790985 -0.9957109689712524 255.0 53.0 1.0 1.0
0.76307493 -2.386734 1.5822822 -0.1345244199037552 -0.03525594249367714 -0.9902828931808472 255.0 53.0 1.0 1.0
0.70252568 -2.261003 1.5962704 -0.0883648544549942 -0.038248538970947266 -0.9953535199165344 255.0 54.0 1.0 1.0
0.71999162 -2.2346742 1.5827464 -0.10390429198741913 -0.05389975383877754 -0.9931257367134094 255.0 54.0 1.0 1.0
0.67041928 -2.1405981 1.6139956 -0.17456655204296112 0.44981154799461365 -0.8758974075317383 255.0 55.0 1.0 1.0
0.69273132 -2.1335473 1.6139013 -0.17456655204296112 0.44981154799461365 -0.8758974075317383 255.0 55.0 1.0 1.0
0.6254828 -1.9777915 1.5929346 -0.13976934552192688 0.7018303871154785 -0.6984973549842834 244.0 56.0 1.0 1.0
0.65301299 -1.9923137 1.6099104 -0.18770891427993774 0.6683443188667297 -0.7197786569595337 253.0 56.0 1.0 1.0
0.57819206 -1.8084788 1.5568906 0.012781791388988495 -0.13691602647304535 -0.9905002117156982 255.0 57.0 1.0 1.0
0.59314126 -1.7906696 1.5466607 0.012798329815268517 0.1272977590560913 -0.9917819499969482 238.0 57.0 1.0 1.0
0.55031854 -1.7027065 1.5681599 -0.18027767539024353 -0.11288085579872131 -0.977117121219635 255.0 58.0 1.0 1.0
0.56709808 -1.6940835 1.5654479 -0.18027767539024353 -0.11288085579872131 -0.977117121219635 255.0 58.0 1.0 1.0
0.5263375 -1.6071762 1.5871469 -0.08603189885616302 -0.0321335643529892 -0.9957740306854248 253.0 59.0 1.0 1.0
0.54494697 -1.6071836 1.592554 -0.1468116194009781 -0.11170352250337601 -0.9828370213508606 255.0 59.0 1.0 1.0
0.50175899 -1.5077846 1.6002965 -0.11768218874931335 -0.05715414136648178 -0.991405189037323 255.0 60.0 1.0 1.0
0.51469952 -1.494544 1.5917124 -0.1461113691329956 -0.037268854677677155 -0.9885659217834473 250.0 60.0 1.0 1.0
0.47787493 -1.4101423 1.6130872 -0.17319461703300476 -0.054475005716085434 -0.9833800196647644 255.0 61.0 1.0 1.0
0.49165025 -1.4025893 1.610086 -0.15681461989879608 -0.0676148310303688 -0.9853108525276184 255.0 61.0 1.0 1.0
0.45153174 -1.3064119 1.6168555 -0.12236393988132477 -0.01466335728764534 -0.992376983165741 255.0 62.0 1.0 1.0
0.47124624 -1.3188215 1.6380905 -0.1188928484916687 -0.03653780743479729 -0.9922345876693726 255.0 62.0 1.0 1.0
0.43524027 -1.2294438 1.6549872 -0.18856678903102875 -0.09924529492855072 -0.9770327806472778 255.0 63.0 1.0 1.0
0.44206554 -1.2086433 1.6329358 -0.18856678903102875 -0.09924529492855072 -0.9770327806472778 255.0 63.0 1.0 1.0
4.1501112 -14.089083 -3.8213558 0.08384963870048523 -0.009669017978012562 0.9964315891265869 13.0 22.0 2.0 1.0
0.028939184 -1.1970375 -1.5885383 0.15246428549289703 0.021590448915958405 0.9880731701850891 255.0 0.0 1.0 1.0
0.041699007 -1.2013879 -1.5949919 0.13415591418743134 0.018773656338453293 0.9907823801040649 255.0 0.0 1.0 1.0
0.041762784 -1.3209901 -1.6129147 0.07972586154937744 0.04783916473388672 0.9956681728363037 255.0 1.0 1.0 1.0
0.055543914 -1.3178509 -1.6098939 0.07972586154937744 0.04783916473388672 0.9956681728363037 255.0 1.0 1.0 1.0
0.053550202 -1.4259398 -1.6125139 0.13313567638397217 0.025514693930745125 0.9907693862915039 255.0 2.0 1.0 1.0
0.068537667 -1.4252049 -1.6125919 0.13313567638397217 0.025514693930745125 0.9907693862915039 255.0 2.0 1.0 1.0
0.066892609 -1.5585976 -1.6368642 0.1265392303466797 0.056844308972358704 0.9903315901756287 255.0 3.0 1.0 1.0
0.082380481 -1.5411766 -1.6195793 0.12651421129703522 0.0602111890912056 0.9901357889175415 255.0 3.0 1.0 1.0
0.079014868 -1.6749773 -1.6395296 0.12459800392389297 0.039486147463321686 0.9914212822914124 255.0 4.0 1.0 1.0
0.097272292 -1.6853842 -1.6508038 0.14985446631908417 0.0651601180434227 0.9865585565567017 255.0 4.0 1.0 1.0
0.092521608 -1.8064271 -1.6512424 0.12003996968269348 0.04344504699110985 0.9918180704116821 255.0 5.0 1.0 1.0
0.11149278 -1.8052611 -1.6513401 0.10183040797710419 0.02502983994781971 0.9944868683815002 255.0 5.0 1.0 1.0
0.10622345 -1.9418117 -1.6604145 0.16810688376426697 0.060415685176849365 0.9839156270027161 253.0 6.0 1.0 1.0
0.12681077 -1.9435303 -1.663116 0.15922872722148895 0.055954739451408386 0.9856547713279724 255.0 6.0 1.0 1.0
0.11994504 -2.0811393 -1.6669035 0.1400763988494873 0.053015537559986115 0.9887204170227051 250.0 7.0 1.0 1.0
0.14243127 -2.0890224 -1.6745077 0.11770133674144745 0.030300065875053406 0.992586612701416 247.0 7.0 1.0 1.0
0.13581069 -2.2562578 -1.6946684 0.14818160235881805 0.014634846709668636 0.9888518452644348 255.0 8.0 1.0 1.0
0.15903862 -2.2482255 -1.6899925 0.15541569888591766 0.07424953579902649 0.9850547909736633 255.0 8.0 1.0 1.0
0.15225656 -2.4271235 -1.7102345 0.10441768169403076 0.011804399080574512 0.9944634437561035 250.0 9.0 1.0 1.0
0.17748617 -2.4220312 -1.7080648 0.12526221573352814 0.03291717916727066 0.9915774464607239 253.0 9.0 1.0 1.0
0.16870229 -2.6134334 -1.7269654 0.13942767679691315 0.06344246864318848 0.9881978034973145 250.0 10.0 1.0 1.0
0.19612308 -2.6114211 -1.7271056 0.09116493165493011 0.04647661745548248 0.9947507381439209 244.0 10.0 1.0 1.0
0.18686216 -2.8085027 -1.7397808 0.13936033844947815 0.09839886426925659 0.9853407740592957 244.0 11.0 1.0 1.0
0.21632443 -2.806289 -1.7399312 0.13936033844947815 0.09839886426925659 0.9853407740592957 241.0 11.0 1.0 1.0
0.20705917 -3.0302134 -1.7572074 0.12661729753017426 0.04958510398864746 0.990711510181427 235.0 12.0 1.0 1.0
0.23775202 -3.0139673 -1.7493602 0.12677232921123505 -0.0037957176100462675 0.9919245839118958 220.0 12.0 1.0 1.0
0.22945361 -3.288939 -1.7845935 0.12943901121616364 0.0241896603256464 0.9912922978401184 241.0 13.0 1.0 1.0
0.26253614 -3.2687163 -1.7752523 0.12109936028718948 0.005236117634922266 0.9926265478134155 220.0 13.0 1.0 1.0
0.25165182 -3.5437212 -1.7962079 0.10153228789567947 0.04194469004869461 0.9939476251602173 214.0 14.0 1.0 1.0
0.28881156 -3.5407856 -1.7963971 0.06881313771009445 0.025055905804038048 0.9973149299621582 217.0 14.0 1.0 1.0
0.27801558 -3.8477528 -1.8184408 0.10978572070598602 0.0013211481273174286 0.9939543604850769 181.0 15.0 1.0 1.0
0.31895649 -3.8517354 -1.8220557 0.14137084782123566 0.024444643408060074 0.9896548986434937 184.0 15.0 1.0 1.0
1.1755148 -4.2374249 -1.9360175 0.12155172228813171 0.07342042773962021 0.9898659586906433 160.0 16.0 1.0 1.0
1.2168463 -4.2142167 -1.9313761 0.09330866485834122 0.06206023693084717 0.9937012195587158 148.0 16.0 1.0 1.0
1.292838 -4.6767392 -1.9804025 0.10222302377223969 0.042187660932540894 0.9938665628433228 121.0 17.0 1.0 1.0
1.3428369 -4.6663871 -1.9821252 0.11654923111200333 0.09900641441345215 0.9882377982139587 115.0 17.0 1.0 1.0
1.4386278 -5.2261219 -2.0429013 0.14825290441513062 0.0249167550355196 0.9886355400085449 61.0 18.0 1.0 1.0
1.4974769 -5.2250438 -2.0487788 0.1337847113609314 0.07247088849544525 0.9883570075035095 61.0 18.0 1.0 1.0
1.6217858 -5.912508 -2.1248491 0.13404861092567444 0.051389724016189575 0.9896414875984192 33.0 19.0 1.0 1.0
1.6816126 -5.8878074 -2.122499 0.10545965284109116 0.03741319477558136 0.9937196373939514 34.0 19.0 1.0 1.0
1.874126 -6.8522835 -2.2529526 0.09655160456895828 0.028607234358787537 0.9949167966842651 36.0 20.0 1.0 1.0
1.9197422 -6.7404747 -2.2230442 0.1622910052537918 0.04915488138794899 0.9855178594589233 35.0 20.0 1.0 1.0
2.1731484 -7.9688358 -2.382622 0.17088262736797333 0.06406381726264954 0.9832065105438232 37.0 21.0 1.0 1.0
2.2597146 -7.9565949 -2.3863089 0.12394002079963684 0.027001578360795975 0.9919221997261047 37.0 21.0 1.0 1.0
2.5729702 -9.4627037 -2.5507543 0.09183411300182343 0.08019733428955078 0.9925395846366882 39.0 22.0 1.0 1.0
2.6741247 -9.4425421 -2.5531981 0.1170981377363205 0.026633765548467636 0.992763102054596 39.0 22.0 1.0 1.0
3.1063139 -11.450116 -2.7589054 0.0963696613907814 0.034296613186597824 0.9947544932365417 24.0 23.0 1.0 1.0
3.9668341 -14.03751 -3.3925734 0.08057070523500443 0.08456840366125107 0.9931548833847046 16.0 23.0 1.0 1.0
3.8312826 -14.144848 -3.0102844 -0.8840926289558411 -0.40900343656539917 0.22604510188102722 226.0 24.0 1.0 1.0
3.9718575 -14.077381 -3.0052953 -0.9820682406425476 -0.035215187817811966 0.1852075308561325 214.0 24.0 1.0 1.0
3.834892 -14.191054 -2.6242878 -0.8788270354270935 -0.45281559228897095 0.15040349960327148 217.0 25.0 1.0 1.0
3.9759142 -14.123433 -2.6200142 -0.9882152676582336 -0.10604766011238098 0.11038286983966827 217.0 25.0 1.0 1.0
3.8382339 -14.226659 -2.238996 -0.8711076974868774 -0.4771614074707031 0.11613938957452774 211.0 26.0 1.0 1.0
3.9838707 -14.174134 -2.2378421 -0.9665990471839905 -0.21900175511837006 0.13313408195972443 214.0 26.0 1.0 1.0
3.8505497 -14.285859 -1.8622643 -0.7672256827354431 -0.6288356781005859 0.12621550261974335 202.0 27.0 1.0 1.0
3.9871244 -14.198794 -1.8569229 -0.9622177481651306 -0.2528795301914215 0.10094015300273895 205.0 27.0 1.0 1.0
3.8620043 -14.351963 -1.4839303 -0.7359707355499268 -0.6669611930847168 0.11623195558786392 202.0 28.0 1.0 1.0
4.0003119 -14.26849 -1.480215 -0.9289169311523438 -0.3424873948097229 0.1407681405544281 223.0 28.0 1.0 1.0
3.8727925 -14.395775 -1.1030493 -0.6934982538223267 -0.7133354544639587 0.10105765610933304 202.0 29.0 1.0 1.0
4.0093665 -14.304432 -1.0998706 -0.9167525172233582 -0.36149463057518005 0.16995982825756073 211.0 29.0 1.0 1.0
3.8867779 -14.461623 -0.72418636 -0.6496787667274475 -0.7503462433815002 0.12205777317285538 187.0 30.0 1.0 1.0
4.015399 -14.33929 -0.72079158 -0.8525180220603943 -0.5126067399978638 0.10221187770366669 211.0 30.0 1.0 1.0
3.9043205 -14.520624 -0.34403312 -0.5582981109619141 -0.8235291242599487 0.10051382333040237 169.0 31.0 1.0 1.0
4.0378304 -14.413457 -0.34314242 -0.8646406531333923 -0.49557068943977356 0.08249986916780472 220.0 31.0 1.0 1.0
1.3211173 -16.467333 0.06071347 -0.22898322343826294 -0.07813325524330139 -0.9702896475791931 13.0 32.0 1.0 1.0
1.3596421 -14.97867 0.054363452 -0.1636965423822403 -0.1097046285867691 -0.9803919196128845 7.0 32.0 1.0 1.0
1.0684617 -13.35597 0.39030603 -0.29773271083831787 -0.0641336590051651 -0.9524925351142883 43.0 33.0 1.0 1.0
1.2042764 -13.300263 0.38831487 -0.4162544906139374 0.02342132478952408 -0.9089463949203491 49.0 33.0 1.0 1.0
0.89475179 -11.191833 0.61346531 -0.1524071991443634 -0.07807604968547821 -0.9852290153503418 49.0 34.0 1.0 1.0
1.00323 -11.086413 0.60762841 -0.11818511039018631 -0.02888285368680954 -0.9925714731216431 44.0 34.0 1.0 1.0
0.79308558 -9.9046049 0.79746306 -0.05327542871236801 -0.9865790009498596 -0.15434898436069489 39.0 35.0 1.0 1.0
0.86864412 -9.5860682 0.77195323 -0.09190896898508072 0.4132370948791504 -0.9059733748435974 40.0 35.0 1.0 1.0
0.49409533 -6.1897645 0.65801847 -0.013550802133977413 0.29870447516441345 -0.9542495012283325 21.0 36.0 1.0 1.0
0.78278953 -8.6602154 0.92153835 -0.35900020599365234 -0.8024328947067261 -0.47667619585990906 38.0 36.0 1.0 1.0
0.49722949 -6.2459927 0.82771325 -0.1468425691127777 -0.006502980832010508 -0.9891384840011597 29.0 37.0 1.0 1.0
0.69904947 -7.7531147 1.028258 -0.17360864579677582 -0.022053774446249008 -0.9845677614212036 76.0 37.0 1.0 1.0
0.49982053 -6.3096066 1.0017414 -0.3095216155052185 0.9508825540542603 -0.004326231777667999 205.0 38.0 1.0 4.0
0.62520438 -6.9651389 1.1065592 -0.04911031946539879 -0.017101235687732697 -0.9986469745635986 91.0 38.0 1.0 1.0
0.50012368 -6.3447046 1.1759794 -0.23019550740718842 0.9696556329727173 0.08232787996530533 190.0 39.0 1.0 1.0
0.56823701 -6.3587699 1.1792799 -0.15056337416172028 -0.16046671569347382 -0.9754900932312012 160.0 39.0 1.0 1.0
0.43728316 -5.5632648 1.1812922 -0.14869976043701172 -0.16652077436447144 -0.9747610688209534 151.0 40.0 1.0 1.0
0.49581271 -5.5623407 1.1818262 -0.10247840732336044 0.4947664141654968 -0.862962543964386 169.0 40.0 1.0 1.0
0.39951071 -5.1197724 1.2277011 -0.13122263550758362 -0.011471237055957317 -0.9912866353988647 199.0 41.0 1.0 1.0
0.45064515 -5.0882487 1.2209134 -0.11151058971881866 -0.14395596086978912 -0.9832811951637268 169.0 41.0 1.0 1.0
0.36775723 -4.7473531 1.2699331 -0.14010347425937653 -0.0669250637292862 -0.9878725409507751 157.0 42.0 1.0 1.0
0.41637924 -4.7317591 1.2665862 -0.14553043246269226 -0.1149681955575943 -0.9826510548591614 172.0 42.0 1.0 1.0
0.3395679 -4.425612 1.3102853 -0.18548144400119781 -0.08701448887586594 -0.9787876009941101 226.0 43.0 1.0 1.0
0.38383502 -4.3989544 1.3032498 -0.22169120609760284 -0.10388462245464325 -0.9695674180984497 214.0 43.0 1.0 1.0
0.31455788 -4.1393194 1.3457725 -0.21114666759967804 -0.07985319942235947 -0.9741871356964111 244.0 44.0 1.0 1.0
0.35553053 -4.1093364 1.336911 -0.15193359553813934 -0.06867311894893646 -0.9860022068023682 229.0 44.0 1.0 1.0
0.29232493 -3.8841128 1.3787271 -0.12817072868347168 -0.06287593394517899 -0.9897569417953491 250.0 45.0 1.0 1.0
0.33066478 -3.8546162 1.3691704 -0.10890282690525055 -0.06615389138460159 -0.9918487071990967 241.0 45.0 1.0 1.0
0.27022296 -3.6341224 1.4001303 -0.11678844690322876 -0.022713778540492058 -0.9928970336914062 250.0 46.0 1.0 1.0
0.30757284 -3.6237278 1.3970656 -0.1571681946516037 -0.006321852095425129 -0.9875516295433044 244.0 46.0 1.0 1.0
0.25822493 -3.506675 1.4615673 -0.37036067247390747 -0.03311551734805107 -0.9282975196838379 255.0 47.0 1.0 1.0
0.29269955 -3.478096 1.4506255 -0.3737865388393402 -0.09544190764427185 -0.9225911498069763 255.0 47.0 1.0 1.0
0.88356376 -3.1868219 1.4814746 -0.22341929376125336 0.05629882588982582 -0.9730952978134155 255.0 48.0 1.0 1.0
0.91885024 -3.1844876 1.4846034 -0.264926552772522 0.06140114739537239 -0.9623118042945862 255.0 48.0 1.0 1.0
0.83533752 -2.9991717 1.4996241 -0.12053971737623215 -0.005112228449434042 -0.9926953911781311 253.0 49.0 1.0 1.0
0.86964649 -3.0007219 1.5046997 -0.13205988705158234 -0.07376627624034882 -0.9884930849075317 255.0 49.0 1.0 1.0
0.79706758 -2.8468213 1.5275705 -0.06739512830972672 0.006184666883200407 -0.9977072477340698 255.0 50.0 1.0 1.0
0.82378894 -2.8281674 1.5219297 -0.08221077173948288 -0.061572108417749405 -0.99471116065979 255.0 50.0 1.0 1.0
0.75422508 -2.677969 1.5393175 -0.10580117255449295 -0.05311877280473709 -0.9929674863815308 250.0 51.0 1.0 1.0
0.78216279 -2.6700063 1.5391968 -0.10172776877880096 -0.08112957328557968 -0.9914985299110413 250.0 51.0 1.0 1.0
0.72436643 -2.5568259 1.5719403 -0.07853232324123383 -0.03606480360031128 -0.9962589740753174 255.0 52.0 1.0 1.0
0.74714243 -2.5359786 1.5636744 -0.13648763298988342 -0.04194064438343048 -0.9897536039352417 255.0 52.0 1.0 1.0
0.686086 -2.4027402 1.5783765 -0.1396583467721939 0.13146255910396576 -0.981434166431427 255.0 53.0 1.0 1.0
0.70825458 -2.3857856 1.5718564 -0.08521077036857605 -0.08364833891391754 -0.9928454160690308 255.0 53.0 1.0 1.0
0.65332729 -2.2686479 1.5920434 -0.012968946248292923 0.6566392779350281 -0.7540931701660156 255.0 54.0 1.0 1.0
0.67888522 -2.2681196 1.5964174 -0.03196340054273605 0.13505461812019348 -0.9903224110603333 255.0 54.0 1.0 1.0
0.60384107 -2.0791683 1.5581203 -0.4575365483760834 0.1908462643623352 -0.8684688210487366 235.0 55.0 1.0 1.0
0.64616162 -2.1411705 1.6094593 -0.06818415969610214 0.4828020930290222 -0.873071014881134 255.0 55.0 1.0 1.0
0.57423067 -1.9567899 1.5663344 -0.2083786427974701 -0.19025413691997528 -0.9593652486801147 253.0 56.0 1.0 1.0
0.59369981 -1.9477202 1.5638094 -0.1680401712656021 0.0427173376083374 -0.9848542213439941 247.0 56.0 1.0 1.0
0.54296386 -1.8288884 1.5647041 0.01648002490401268 -0.14054371416568756 -0.9899373054504395 255.0 57.0 1.0 1.0
0.55290484 -1.7936434 1.5392432 0.01648002490401268 -0.14054371416568756 -0.9899373054504395 244.0 57.0 1.0 1.0
0.51639873 -1.7194233 1.5736237 -0.19025371968746185 -0.11889860779047012 -0.9745084047317505 255.0 58.0 1.0 1.0
0.5325191 -1.7082651 1.5682716 -0.18926076591014862 -0.12183097004890442 -0.9743395447731018 250.0 58.0 1.0 1.0
0.49184051 -1.6148626 1.5845848 -0.08599948137998581 -0.042255111038684845 -0.9953987002372742 253.0 59.0 1.0 1.0
0.50865793 -1.6097088 1.5845137 -0.08603189885616302 -0.0321335643529892 -0.9957740306854248 253.0 59.0 1.0 1.0
0.46936271 -1.5150751 1.5976226 -0.1253925859928131 -0.057099808007478714 -0.9904627203941345 253.0 60.0 1.0 1.0
0.48341137 -1.5047995 1.5918763 -0.11768218874931335 -0.05715414136648178 -0.991405189037323 253.0 60.0 1.0 1.0
0.45163101 -1.4299841 1.6250058 -0.17485904693603516 -0.057817623019218445 -0.9828944206237793 255.0 61.0 1.0 1.0
0.45975837 -1.4046507 1.6014174 -0.1749449223279953 -0.0486169196665287 -0.98337721824646 250.0 61.0 1.0 1.0
0.42259762 -1.3104407 1.6109155 -0.12236393988132477 -0.01466335728764534 -0.992376983165741 253.0 62.0 1.0 1.0
0.44034961 -1.3183475 1.6260678 -0.12236393988132477 -0.01466335728764534 -0.992376983165741 255.0 62.0 1.0 1.0
0.40562823 -1.2263448 1.6394069 -0.1892429143190384 -0.052307844161987305 -0.9805360436439514 255.0 63.0 1.0 1.0
0.42078698 -1.2291396 1.6487831 -0.1892429143190384 -0.052307844161987305 -0.9805360436439514 255.0 63.0 1.0 1.0
3.8078792 -13.960895 -4.1732039 0.07567114382982254 0.06483142822980881 0.9950230121612549 10.0 21.0 2.0 1.0
3.9645226 -13.956985 -4.1849189 0.10782593488693237 0.02705274149775505 0.9938017129898071 11.0 21.0 2.0 1.0
3.8126676 -14.02012 -3.7785594 0.09183411300182343 0.08019733428955078 0.9925395846366882 15.0 22.0 2.0 1.0
3.9720774 -14.023905 -3.7912745 0.1170981377363205 0.026633765548467636 0.992763102054596 16.0 22.0 2.0 1.0
3.816658 -14.067162 -3.3890941 0.0963696613907814 0.034296613186597824 0.9947544932365417 15.0 23.0 2.0 1.0
1.4882557 -16.392822 0.059712145 -0.1636965423822403 -0.1097046285867691 -0.9803919196128845 18.0 32.0 2.0 1.0
0.70074737 -8.7749329 0.93345153 0.02963830903172493 0.25886407494544983 -0.9654590487480164 36.0 36.0 2.0 1.0
0.62613773 -7.8627195 1.0423561 -0.1468425691127777 -0.006502980832010508 -0.9891384840011597 28.0 37.0 2.0 1.0
0.0038053549 -1.1903538 -1.5788093 0.15246428549289703 0.021590448915958405 0.9880731701850891 255.0 0.0 1.0 1.0
0.016700111 -1.2166479 -1.6140039 0.15246428549289703 0.021590448915958405 0.9880731701850891 255.0 0.0 1.0 1.0
0.014085501 -1.324313 -1.6158442 0.17113269865512848 0.040708862245082855 0.9844066500663757 255.0 1.0 1.0 1.0
0.027683867 -1.3087838 -1.5973587 0.17113269865512848 0.040708862245082855 0.9844066500663757 255.0 1.0 1.0 1.0
0.023826642 -1.4375564 -1.6243162 0.1325533390045166 0.048828255385160446 0.9899723529815674 255.0 2.0 1.0 1.0
0.038719356 -1.4291797 -1.6154115 0.13267004489898682 0.025040969252586365 0.9908438920974731 255.0 2.0 1.0 1.0
0.033843111 -1.5433002 -1.6193062 0.11877860128879547 0.0203013364225626 0.992713212966919 255.0 3.0 1.0 1.0
0.050331697 -1.551043 -1.6280749 0.1265392303466797 0.056844308972358704 0.9903315901756287 255.0 3.0 1.0 1.0
0.043669194 -1.6678884 -1.630939 0.12469512969255447 -0.0013661194825544953 0.9921941161155701 253.0 4.0 1.0 1.0
0.061191328 -1.6672434 -1.6310306 0.12469512969255447 -0.0013661194825544953 0.9921941161155701 255.0 4.0 1.0 1.0
0.054739796 -1.8111278 -1.653718 0.14914026856422424 0.06988443434238434 0.9863434433937073 255.0 5.0 1.0 1.0
0.073641136 -1.8074051 -1.6511211 0.12005554884672165 0.040349505841732025 0.9919467568397522 255.0 5.0 1.0 1.0
0.065000236 -1.9286098 -1.6471983 0.11047806590795517 0.045596182346343994 0.9928320050239563 253.0 6.0 1.0 1.0
0.085927352 -1.9429259 -1.6602846 0.11059290915727615 0.0018127105431631207 0.9938640594482422 255.0 6.0 1.0 1.0
0.076780006 -2.0958934 -1.6766386 0.15232212841510773 0.04063645377755165 0.9874951839447021 255.0 7.0 1.0 1.0
0.098784052 -2.0948756 -1.6767527 0.15232212841510773 0.04063645377755165 0.9874951839447021 255.0 7.0 1.0 1.0
0.088014044 -2.2460213 -1.6848032 0.14003056287765503 0.03747865930199623 0.9894376397132874 255.0 8.0 1.0 1.0
0.11111113 -2.2352853 -1.6777302 0.14818160235881805 0.014634846709668636 0.9888518452644348 255.0 8.0 1.0 1.0
0.10152195 -2.4332612 -1.7122416 0.11417949944734573 0.04495716467499733 0.9924423694610596 255.0 9.0 1.0 1.0
0.12620203 -2.4156227 -1.7008744 0.10427200794219971 0.05410393700003624 0.9930760264396667 253.0 9.0 1.0 1.0
0.1139297 -2.6166062 -1.7266511 0.16230878233909607 0.07091090828180313 0.9841887354850769 250.0 10.0 1.0 1.0
0.14156739 -2.6185031 -1.7289935 0.1395501047372818 0.04769879952073097 0.9890654683113098 250.0 10.0 1.0 1.0
0.12707213 -2.7916157 -1.726833 0.13606514036655426 -0.008172287605702877 0.9906662106513977 235.0 11.0 1.0 1.0
0.1573157 -2.8070197 -1.7374936 0.135934516787529 0.04456227645277977 0.9897151589393616 244.0 11.0 1.0 1.0
0.14240944 -3.0098867 -1.7428319 0.09876110404729843 0.022479919716715813 0.9948571920394897 229.0 12.0 1.0 1.0
0.17538622 -3.0323281 -1.7570081 0.12598121166229248 0.05001331865787506 0.9907711148262024 235.0 12.0 1.0 1.0
0.15778643 -3.2370138 -1.7537553 0.13506220281124115 0.0356246680021286 0.9901964664459229 217.0 13.0 1.0 1.0
0.19361643 -3.26669 -1.7710568 0.10742995887994766 0.042190395295619965 0.9933170676231384 223.0 13.0 1.0 1.0
0.17650405 -3.5306044 -1.786767 0.07609669119119644 0.07355234771966934 0.9943838715553284 211.0 14.0 1.0 1.0
0.21353079 -3.5284576 -1.7869573 0.12938857078552246 0.07865465432405472 0.9884695410728455 211.0 14.0 1.0 1.0
0.19665356 -3.8384972 -1.8111649 0.16548100113868713 0.08672016113996506 0.9823927879333496 190.0 15.0 1.0 1.0
0.23824431 -3.8577917 -1.8215981 0.1362941563129425 0.037174325436353683 0.9899706840515137 202.0 15.0 1.0 1.0
1.0820169 -4.243588 -1.9274985 0.17298570275306702 0.03169034421443939 0.9844143390655518 169.0 16.0 1.0 1.0
1.1245803 -4.2248359 -1.9244715 0.1619740128517151 0.05777725204825401 0.9851021766662598 169.0 16.0 1.0 1.0
1.1882613 -4.6778774 -1.9693153 0.08521078526973724 0.04210994765162468 0.9954727292060852 121.0 17.0 1.0 1.0
1.2372537 -4.665062 -1.96953 0.10665541142225266 0.053957946598529816 0.9928309321403503 121.0 17.0 1.0 1.0
1.3234034 -5.2335505 -2.0338695 0.16906794905662537 0.0547434538602829 0.9840829372406006 58.0 18.0 1.0 1.0
1.3772535 -5.2156672 -2.0327001 0.1251804232597351 0.033339690417051315 0.9915736317634583 37.0 18.0 1.0 1.0
1.483814 -5.8904238 -2.1045675 0.12712422013282776 0.045504722744226456 0.9908424615859985 34.0 19.0 1.0 1.0
1.5503013 -5.8927159 -2.111383 0.133366197347641 0.04771043732762337 0.9899178147315979 34.0 19.0 1.0 1.0
1.6987036 -6.7645245 -2.2111208 0.12597885727882385 0.04558805003762245 0.9909848570823669 33.0 20.0 1.0 1.0
1.7927517 -6.8347549 -2.2404335 0.11522485315799713 0.04680657759308815 0.9922360181808472 34.0 20.0 1.0 1.0
1.9872111 -7.9382758 -2.3595936 0.14207547903060913 0.01407590787857771 0.9897557497024536 36.0 21.0 1.0 1.0
2.0771253 -7.9429221 -2.3677142 0.12915922701358795 0.004036868456751108 0.9916156530380249 36.0 21.0 1.0 1.0
2.3537371 -9.4321327 -2.5275829 0.11851084232330322 0.09283114224672318 0.9886038899421692 38.0 22.0 1.0 1.0
2.469079 -9.4705048 -2.5451238 0.10137280076742172 -0.00693765701726079 0.9948243498802185 37.0 22.0 1.0 1.0
3.6849408 -14.16685 -3.4028137 0.1323031485080719 0.0851716697216034 0.9875432252883911 16.0 23.0 1.0 1.0
3.5684657 -14.359159 -3.0376842 -0.305168479681015 -0.9483403563499451 0.08673468232154846 28.0 24.0 1.0 1.0
3.6891966 -14.207054 -3.0142171 -0.7302454710006714 -0.6618855595588684 0.16926036775112152 166.0 24.0 1.0 1.0
3.5825872 -14.451954 -2.656441 -0.024487879127264023 -0.9966959357261658 0.07744337618350983 24.0 25.0 1.0 1.0
3.7081442 -14.314381 -2.6388447 -0.6545440554618835 -0.7396532297134399 0.1564769595861435 199.0 25.0 1.0 1.0
3.5967193 -14.534445 -2.2734466 -0.9486192464828491 -0.29931163787841797 0.10263534635305405 14.0 26.0 1.0 1.0
3.7091949 -14.342702 -2.2501042 -0.535234272480011 -0.8416922092437744 0.07126393169164658 151.0 26.0 1.0 1.0
4.411942 -17.846413 -2.3115859 -0.9872502684593201 -0.029423104599118233 0.1564328968524933 172.0 27.0 1.0 1.0
3.730875 -14.440707 -1.8763306 -0.472027987241745 -0.873860776424408 0.116434246301651 130.0 27.0 1.0 1.0
4.4202256 -17.911551 -1.8397338 -0.9886327981948853 0.018149565905332565 0.14925071597099304 187.0 28.0 1.0 1.0
3.7386966 -14.495686 -1.4937384 -0.27369633316993713 -0.9552094340324402 0.11254003643989563 73.0 28.0 1.0 1.0
4.4270287 -17.943981 -1.3652567 -0.9884328842163086 0.05580711364746094 0.14101772010326385 184.0 29.0 1.0 1.0
3.746094 -14.528231 -1.1092104 -0.22353249788284302 -0.9724004864692688 0.06686130911111832 28.0 29.0 1.0 1.0
4.435379 -17.996275 -0.89407688 -0.9978893995285034 0.03397434949874878 0.05533916875720024 199.0 30.0 1.0 1.0
3.7584152 -14.590476 -0.72770381 0.06847402453422546 -0.9963831901550293 0.05031877011060715 24.0 30.0 1.0 1.0
4.4451904 -18.027546 -0.42255855 -0.9938129782676697 -0.019050274044275284 0.10942043364048004 118.0 31.0 1.0 1.0
3.8043182 -14.762011 -0.34784374 -0.8422804474830627 -0.49223893880844116 0.21969181299209595 21.0 31.0 1.0 1.0
0.36829683 -6.2254386 0.022846919 -0.9936820268630981 0.03796519339084625 0.10561550408601761 244.0 32.0 1.0 4.0
0.42678306 -6.1254706 0.022147365 -0.13029731810092926 -0.09276515245437622 -0.9871257543563843 26.0 32.0 1.0 1.0
0.36772496 -6.2388515 0.18209529 -0.9850881695747375 -0.06104099005460739 0.1608579158782959 241.0 33.0 1.0 4.0
0.43274632 -6.2306767 0.18164434 -0.08891382068395615 -0.05430300533771515 -0.9945579767227173 154.0 33.0 1.0 1.0
0.3672944 -6.236165 0.34148526 -0.9691583514213562 -0.10927083343267441 0.22088900208473206 223.0 34.0 1.0 4.0
0.43255892 -6.2319918 0.34115162 -0.23900757730007172 0.9574688673019409 -0.1616438329219818 190.0 34.0 1.0 4.0
0.36936089 -6.2571979 0.50331551 -0.978661835193634 -0.19835487008094788 0.053631220012903214 232.0 35.0 1.0 4.0
0.43677747 -6.2808537 0.50522619 -0.6930364966392517 0.7208934426307678 0.00363512453623116 235.0 35.0 1.0 4.0
0.36876416 -6.2701478 0.66636217 -0.9577714204788208 -0.24196435511112213 0.15532900393009186 226.0 36.0 1.0 4.0
0.43629938 -6.2937517 0.66898501 -0.994912326335907 0.06280019134283066 0.07877592742443085 238.0 36.0 1.0 4.0
0.36768198 -6.2747288 0.83107841 -0.9773576259613037 -0.1969720423221588 0.07729288190603256 223.0 37.0 1.0 4.0
0.4349733 -6.2943125 0.83389229 -0.9924814105033875 -0.056246016174554825 0.10870610177516937 241.0 37.0 1.0 4.0
0.36778718 -6.3185687 1.0024884 -0.9908400177955627 -0.02878520078957081 0.1319371908903122 241.0 38.0 1.0 4.0
0.43497491 -6.3301883 1.0046556 -0.9702039361000061 -0.17432504892349243 0.16827058792114258 241.0 38.0 1.0 4.0
0.36804622 -6.3654246 1.1789148 -0.9463142156600952 0.02516903541982174 0.3222668468952179 255.0 39.0 1.0 1.0
0.43543848 -6.3730559 1.1807575 -0.8864725828170776 -0.31638815999031067 0.3377349078655243 255.0 39.0 1.0 1.0
0.32381296 -5.6218452 1.1927384 -0.09249430894851685 -0.04101100564002991 -0.994868278503418 166.0 40.0 1.0 1.0
0.3804858 -5.586977 1.185801 -0.1525852531194687 -0.03148142993450165 -0.987788736820221 145.0 40.0 1.0 1.0
0.29461819 -5.1657066 1.2376236 -0.11361578851938248 -0.0717424601316452 -0.9909310340881348 202.0 41.0 1.0 1.0
0.34733155 -5.1429977 1.2326903 -0.11228559911251068 -0.03014487400650978 -0.9932186603546143 184.0 41.0 1.0 1.0
0.27128246 -4.8040209 1.2839165 -0.2849344313144684 -0.05965298041701317 -0.9566890597343445 175.0 42.0 1.0 1.0
0.31815842 -4.7508574 1.270242 -0.2709145247936249 -0.009597739204764366 -0.9625555872917175 133.0 42.0 1.0 1.0
0.24870484 -4.4622369 1.3198838 -0.12090560793876648 -0.01964564248919487 -0.9924695491790771 238.0 43.0 1.0 1.0
0.29282326 -4.4211831 1.308306 -0.14440080523490906 -0.048111964017152786 -0.9883490204811096 214.0 43.0 1.0 1.0
0.22986294 -4.179029 1.3573813 -0.11516338586807251 0.03950195387005806 -0.9925609230995178 253.0 44.0 1.0 1.0
0.27106452 -4.1384997 1.3448076 -0.15935444831848145 -0.0373188741505146 -0.9865157604217529 232.0 44.0 1.0 1.0
0.21129523 -3.8929849 1.3805259 -0.11526849120855331 -0.06919290870428085 -0.9909215569496155 244.0 45.0 1.0 1.0
0.25052765 -3.868058 1.3722999 -0.12795305252075195 -0.085637666285038 -0.9880759716033936 235.0 45.0 1.0 1.0
0.19601947 -3.6723707 1.4134904 -0.09820445626974106 -0.03789355605840683 -0.9944446086883545 255.0 46.0 1.0 1.0
0.23392911 -3.6627402 1.4104209 -0.160318523645401 -0.099525086581707 -0.9820350408554077 255.0 46.0 1.0 1.0
0.18626057 -3.5369561 1.4727448 -0.34692972898483276 -0.048191431909799576 -0.9366521835327148 255.0 47.0 1.0 1.0
0.21996132 -3.4832916 1.4510387 -0.34618380665779114 -0.08129024505615234 -0.9346383213996887 255.0 47.0 1.0 1.0
0.8167913 -3.204437 1.4818264 -0.17516793310642242 -0.08837074041366577 -0.980564534664154 253.0 48.0 1.0 1.0
0.8493014 -3.19226 1.4800428 -0.09999190270900726 -0.12315622717142105 -0.9873368740081787 244.0 48.0 1.0 1.0
0.77518529 -3.0262871 1.505168 -0.07969324290752411 -0.0025667212903499603 -0.9968162178993225 247.0 49.0 1.0 1.0
0.80956405 -3.0285256 1.5102417 -0.12053971737623215 -0.005112228449434042 -0.9926953911781311 255.0 49.0 1.0 1.0
0.73831493 -2.8661361 1.5297228 -0.14392328262329102 -0.03868759423494339 -0.9888322949409485 255.0 50.0 1.0 1.0
0.76268792 -2.8377438 1.5185652 -0.16135607659816742 0.006117533892393112 -0.9868773221969604 250.0 50.0 1.0 1.0
0.70076364 -2.7031436 1.545428 -0.14932751655578613 -0.04097853973507881 -0.9879382252693176 255.0 51.0 1.0 1.0
