ply
format ascii 1.0
element vertex 435
property float x
property float y
property float z
property float nx
property float ny
property float nz
property float intensity
property float ring
property float return
property float label
end_header
1.7063725 1.1690264 1.7269318 -0.10026516020298004 -0.03909274563193321 -0.9941924810409546 255.0 57.0 1.0 1.0
1.6914756 1.18512 1.7243736 -0.10004961490631104 -0.07626735419034958 -0.9920551776885986 255.0 57.0 1.0 1.0
1.5963802 1.1005998 1.7299528 -0.15862366557121277 -0.04507329687476158 -0.9863097071647644 255.0 58.0 1.0 1.0
1.5774032 1.1121465 1.7219688 -0.17573142051696777 -0.014221853576600552 -0.9843353033065796 253.0 58.0 1.0 1.0
1.5049546 1.0456909 1.7508909 0.20673269033432007 -0.026675978675484657 -0.978033721446991 255.0 59.0 1.0 1.0
1.4797301 1.0513906 1.7343163 0.20673269033432007 -0.026675978675484657 -0.978033721446991 255.0 59.0 1.0 1.0
1.4167117 0.99391216 1.7743522 0.21694229543209076 -0.01046691183000803 -0.976128339767456 255.0 60.0 1.0 1.0
1.3993703 1.0038601 1.7657658 0.21694229543209076 -0.01046691183000803 -0.976128339767456 253.0 60.0 1.0 1.0
1.2985388 0.92115563 1.7563738 -0.3575506806373596 -0.4394424557685852 -0.8240436315536499 247.0 61.0 1.0 1.0
1.2974713 0.94106764 1.7682304 -0.24324661493301392 -0.2557380497455597 -0.9356436729431152 253.0 61.0 1.0 1.0
1.2128625 0.87090445 1.7789984 -0.04447367042303085 -0.06296203285455704 -0.9970245361328125 255.0 62.0 1.0 1.0
1.2160643 0.89274591 1.7973822 -0.04510814696550369 -0.06386026740074158 -0.9969388246536255 255.0 62.0 1.0 1.0
1.1165711 0.81392252 1.7866161 -0.2045225352048874 -0.42169201374053955 -0.8833722472190857 255.0 63.0 1.0 1.0
1.1138244 0.83001274 1.7961096 -0.12871356308460236 -0.8211973905563354 -0.5559386014938354 255.0 63.0 1.0 1.0
1.13884 0.39961168 -1.5798973 0.1507824808359146 0.0631423145532608 0.9865483641624451 255.0 0.0 1.0 1.0
1.1567459 0.39239097 -1.5989734 0.1507824808359146 0.0631423145532608 0.9865483641624451 255.0 0.0 1.0 1.0
1.2533189 0.44927981 -1.6033605 0.11502397805452347 -0.010603711940348148 0.9933061003684998 250.0 1.0 1.0 1.0
1.2506849 0.43364802 -1.5941482 0.10988259315490723 -0.013661274686455727 0.9938507080078125 238.0 1.0 1.0 1.0
1.339834 0.48838034 -1.5902759 0.20015288889408112 0.010972404852509499 0.9797031879425049 103.0 2.0 1.0 1.0
1.4336084 0.51345044 -1.5766903 0.149570494890213 0.048835091292858124 0.9875442385673523 20.0 3.0 1.0 1.0
1.5716783 0.58860999 -1.6190385 0.17922551929950714 0.01905716396868229 0.9836234450340271 229.0 4.0 1.0 1.0
1.5966842 0.57903659 -1.6384854 0.14790363609790802 0.03361832723021507 0.9884302616119385 253.0 4.0 1.0 1.0
1.6817746 0.63646036 -1.6193849 0.11611074209213257 -0.004268391989171505 0.9932270646095276 255.0 5.0 1.0 1.0
1.6939074 0.62089854 -1.6247543 0.09821595996618271 0.011032113805413246 0.9951039552688599 250.0 5.0 1.0 1.0
1.8062788 0.6899966 -1.6282642 0.13742659986019135 0.03872368112206459 0.9897546172142029 253.0 6.0 1.0 1.0
1.8219928 0.67426962 -1.6360093 0.15056054294109344 0.036522410809993744 0.9879259467124939 255.0 6.0 1.0 1.0
1.9492233 0.7503854 -1.6468067 0.10069706290960312 0.060231804847717285 0.9930922985076904 255.0 7.0 1.0 1.0
1.9569503 0.72996849 -1.6468285 0.10073496401309967 0.10727011412382126 0.9891135692596436 250.0 7.0 1.0 1.0
2.0844662 0.80781204 -1.6521128 0.20232003927230835 0.11405425518751144 0.9726552963256836 255.0 8.0 1.0 1.0
2.0897753 0.78484327 -1.6497602 0.14078666269779205 0.07936592400074005 0.9868537783622742 255.0 8.0 1.0 1.0
2.2418666 0.87459832 -1.6675187 0.08423005044460297 0.1273891031742096 0.9882699251174927 255.0 9.0 1.0 1.0
2.2354987 0.84528989 -1.6561594 0.15407320857048035 0.12631690502166748 0.9799518585205078 247.0 9.0 1.0 1.0
2.3921697 0.93749493 -1.6687493 0.1491173505783081 0.08165420591831207 0.9854422807693481 247.0 10.0 1.0 1.0
2.4081042 0.91481459 -1.6731303 0.1389761120080948 0.07610102742910385 0.9873673319816589 238.0 10.0 1.0 1.0
2.5654571 1.0105053 -1.6777765 0.13303814828395844 0.08489591628313065 0.9874683022499084 241.0 11.0 1.0 1.0
2.5982225 0.9921627 -1.6923499 0.08461452275514603 0.027517203241586685 0.9960336685180664 250.0 11.0 1.0 1.0
2.7634048 1.0934235 -1.691643 0.18045951426029205 0.10850946605205536 0.9775786995887756 247.0 12.0 1.0 1.0
2.7811706 1.0669553 -1.695628 0.04568435251712799 0.030714528635144234 0.9984835982322693 244.0 12.0 1.0 1.0
2.9532497 1.1726424 -1.6911689 0.1456528604030609 0.026134809479117393 0.9889904856681824 232.0 13.0 1.0 1.0
2.985116 1.1493075 -1.7024696 0.14263823628425598 0.026146406307816505 0.9894294142723083 232.0 13.0 1.0 1.0
3.1979134 1.2736019 -1.7099584 0.13455627858638763 0.08125259727239609 0.9875690937042236 223.0 14.0 1.0 1.0
3.2210758 1.2439563 -1.7153285 0.14160946011543274 0.09733119606971741 0.9851260185241699 220.0 14.0 1.0 1.0
3.4550099 1.380114 -1.7216245 0.15788888931274414 0.05297442525625229 0.9860349297523499 199.0 15.0 1.0 1.0
3.5064855 1.3583294 -1.7401284 0.15342146158218384 0.053012195974588394 0.986737847328186 217.0 15.0 1.0 1.0
3.1202188 2.0340922 -1.6039172 0.14059558510780334 -0.030453816056251526 0.9895986318588257 214.0 16.0 1.0 1.0
3.1692126 2.0191138 -1.6181587 0.14580494165420532 0.057088665664196014 0.9876648187637329 229.0 16.0 1.0 1.0
3.3975837 2.2098475 -1.6160159 0.12738126516342163 0.06585905700922012 0.9896649122238159 202.0 17.0 1.0 1.0
3.423651 2.1761765 -1.617511 0.15529051423072815 0.05612056702375412 0.9862734079360962 187.0 17.0 1.0 1.0
3.7412541 2.4268873 -1.6394832 0.08572692424058914 0.02693902514874935 0.9959543943405151 226.0 18.0 1.0 1.0
3.8140032 2.4177721 -1.6601888 0.11425899714231491 0.0951298400759697 0.9888858795166016 244.0 18.0 1.0 1.0
3.8588409 2.4973946 -1.5514444 0.5347882509231567 -0.8438642024993896 0.04352971911430359 255.0 19.0 1.0 1.0
3.8687439 2.4467506 -1.5450702 0.6400675177574158 -0.7675452828407288 0.034465644508600235 255.0 19.0 1.0 1.0
3.8588667 2.4925859 -1.4161559 0.506740927696228 -0.8620983362197876 0.0003654701285995543 255.0 20.0 1.0 1.0
3.8944349 2.4581926 -1.4197054 0.5969340205192566 -0.8020899295806885 -0.017928123474121094 255.0 20.0 1.0 1.0
3.8456235 2.4792266 -1.2799934 0.47865235805511475 -0.8773488998413086 -0.033922091126441956 255.0 21.0 1.0 1.0
3.8713584 2.4388466 -1.2800106 0.5208286643028259 -0.8523067831993103 -0.048068370670080185 255.0 21.0 1.0 1.0
3.8780599 2.4953048 -1.1600058 0.44313526153564453 -0.8946647644042969 -0.05662126466631889 255.0 22.0 1.0 1.0
3.9072475 2.4566462 -1.1609981 0.4780876934528351 -0.8772225975990295 -0.043732378631830215 255.0 22.0 1.0 1.0
3.8677142 2.4847801 -1.0302271 0.4018469452857971 -0.915562629699707 0.01625380478799343 255.0 23.0 1.0 1.0
3.8868992 2.4400105 -1.0284969 0.41554129123687744 -0.9093732833862305 -0.019122792407870293 255.0 23.0 1.0 1.0
3.8802371 2.4899085 -0.90864354 0.3931543827056885 -0.9193668961524963 0.013929801061749458 255.0 24.0 1.0 1.0
3.9060898 2.4491556 -0.90866119 0.3941335082054138 -0.9180907011032104 -0.04204878956079483 255.0 24.0 1.0 1.0
3.9137914 2.5075386 -0.79143304 0.32792437076568604 -0.9435069561004639 0.047541335225105286 255.0 25.0 1.0 1.0
3.9197757 2.4538739 -0.78742784 0.3477282226085663 -0.9375953674316406 -4.470807471079752e-05 255.0 25.0 1.0 1.0
3.9110281 2.5028303 -0.66751641 0.1715710163116455 -0.9847694635391235 0.028151441365480423 255.0 26.0 1.0 1.0
3.916877 2.449151 -0.66412449 0.3416225016117096 -0.9397083520889282 0.015571043826639652 255.0 26.0 1.0 1.0
3.9317033 2.5140803 -0.54941159 0.1384071409702301 -0.9902988076210022 0.012324712239205837 255.0 27.0 1.0 1.0
3.9544451 2.4706726 -0.54896283 0.290223091840744 -0.9564944505691528 -0.029817016795277596 255.0 27.0 1.0 1.0
3.8966224 2.4887192 -0.42421687 0.11912064254283905 -0.9910298585891724 0.06058216840028763 250.0 28.0 1.0 1.0
3.9224715 2.4477828 -0.4242349 0.1708732694387436 -0.9851459860801697 0.01702858880162239 255.0 28.0 1.0 1.0
3.945317 2.5188074 -0.30858675 0.05770738795399666 -0.997905969619751 0.029216498136520386 255.0 29.0 1.0 1.0
3.9680948 2.4752436 -0.3083427 0.11933145672082901 -0.9925869107246399 0.02304982766509056 255.0 29.0 1.0 1.0
3.9477453 2.5193379 -0.18879142 0.02935522235929966 -0.9973641633987427 0.06635535508394241 255.0 30.0 1.0 1.0
3.9467869 2.4609375 -0.18752714 0.10484227538108826 -0.9926409125328064 0.06059783697128296 255.0 30.0 1.0 1.0
3.9644458 2.5289748 -0.069779135 -0.017301393672823906 -0.9988607168197632 0.044473953545093536 255.0 31.0 1.0 1.0
3.9737501 2.4767368 -0.069504671 0.04266849905252457 -0.9986857175827026 0.028394056484103203 255.0 31.0 1.0 1.0
5.3073225 2.1510568 0.061714236 0.43476420640945435 -0.9005356431007385 -0.003939527086913586 33.0 32.0 1.0 5.0
5.3854017 2.117312 0.06231321 -0.2697972059249878 -0.9082043170928955 0.31995996832847595 31.0 32.0 1.0 5.0
5.3382702 2.1612878 0.20883693 0.31179484724998474 -0.9499127268791199 -0.021203314885497093 31.0 33.0 1.0 5.0
5.3978305 2.119873 0.2102353 -0.347060889005661 -0.9368494749069214 0.043148722499608994 31.0 33.0 1.0 5.0
5.3246107 2.1545277 0.35503662 0.36919867992401123 -0.9286906123161316 -0.035013534128665924 32.0 34.0 1.0 5.0
5.4212208 2.1278174 0.35992637 0.4519597589969635 -0.8895822167396545 0.06614993512630463 30.0 34.0 1.0 5.0
5.3699145 2.1727176 0.50673455 0.3048880398273468 -0.9523730278015137 -0.00537397526204586 30.0 35.0 1.0 5.0
5.3923931 2.1163461 0.50667739 0.42064422369003296 -0.9065316915512085 0.03547779098153114 31.0 35.0 1.0 5.0
5.0326805 2.0340385 0.61501318 0.24643434584140778 -0.864349365234375 -0.4383723735809326 88.0 36.0 1.0 1.0
5.0426269 1.9768502 0.61360693 -0.08618650585412979 -0.6505751013755798 -0.7545355558395386 157.0 36.0 1.0 1.0
5.2705159 2.1279092 0.79281801 -0.008848357014358044 -0.9987921118736267 -0.04833211004734039 35.0 37.0 1.0 2.0
5.2851601 2.0696838 0.79165554 -0.0004799855232704431 -0.9999786019325256 -0.006532662082463503 35.0 37.0 1.0 2.0
5.3572268 2.1595149 0.95717078 0.18780584633350372 -0.9689579606056213 -0.16077734529972076 31.0 38.0 1.0 5.0
5.3869276 2.1061397 0.9584223 0.09276073426008224 -0.990023136138916 -0.10606466978788376 32.0 38.0 1.0 5.0
5.3738394 2.1627877 1.1138705 0.2114516794681549 -0.9605995416641235 -0.18037950992584229 31.0 39.0 1.0 5.0
5.4072032 2.1106458 1.1160802 0.17593365907669067 -0.9660065174102783 -0.1894167810678482 31.0 39.0 1.0 5.0
5.4221635 2.179884 1.2816432 0.4434146583080292 -0.8692942261695862 -0.21842819452285767 31.0 40.0 1.0 5.0
5.430171 2.1172662 1.2781559 0.16229386627674103 -0.9681180119514465 -0.19080902636051178 31.0 40.0 1.0 5.0
5.3764496 2.1569772 1.4297582 0.06746421754360199 -0.9966921806335449 -0.0453118197619915 32.0 41.0 1.0 5.0
5.4385905 2.116008 1.4402479 0.06272686272859573 -0.9812318086624146 -0.1823444366455078 31.0 41.0 1.0 5.0
4.7508755 1.9019213 1.4050137 0.23047184944152832 -0.08700520545244217 -0.9691815376281738 172.0 42.0 1.0 1.0
4.7418075 1.840852 1.396487 -0.13136547803878784 -0.18753620982170105 -0.9734337329864502 139.0 42.0 1.0 1.0
4.3894 1.7525709 1.4329396 -0.1539752185344696 -0.0654168426990509 -0.9859067797660828 136.0 43.0 1.0 1.0
4.3647189 1.6898755 1.4189606 -0.06828665733337402 -0.02824671007692814 -0.9972657561302185 94.0 43.0 1.0 1.0
4.1849437 1.6665323 1.4969304 -0.07890458405017853 -0.970811128616333 -0.22649481892585754 255.0 44.0 1.0 1.0
4.2022076 1.622571 1.4968851 -0.09395086020231247 -0.9546009302139282 -0.2826841473579407 255.0 44.0 1.0 1.0
3.7388606 1.4849076 1.4573184 -0.14817847311496735 -0.06881136447191238 -0.9865638017654419 211.0 45.0 1.0 1.0
3.7366998 1.4388692 1.4504639 -0.05205877870321274 -0.0917355939745903 -0.9944216012954712 199.0 45.0 1.0 1.0
3.5541892 1.4070966 1.5010689 -0.10769428312778473 -0.03643697872757912 -0.9935161471366882 255.0 46.0 1.0 1.0
3.5201128 1.3510685 1.4805559 -0.11916393041610718 -0.02245897799730301 -0.992620587348938 247.0 46.0 1.0 1.0
3.3381979 1.3180515 1.5229331 -0.14340482652187347 -0.08964076638221741 -0.9855960607528687 255.0 47.0 1.0 1.0
3.3243518 1.2724408 1.5103936 -0.09768697619438171 -0.04788658767938614 -0.9940643906593323 255.0 47.0 1.0 1.0
2.9832397 1.9272486 1.627164 -0.16166359186172485 -0.049646392464637756 -0.9855963587760925 238.0 48.0 1.0 1.0
3.0063767 1.8977957 1.6288172 -0.1100776344537735 -0.0038744292687624693 -0.9939154982566833 241.0 48.0 1.0 1.0
2.8066521 1.817266 1.6455578 -0.06821063905954361 -0.030741149559617043 -0.9971972107887268 244.0 49.0 1.0 1.0
2.8134429 1.780049 1.6384791 -0.12889420986175537 -0.08428267389535904 -0.9880701899528503 247.0 49.0 1.0 1.0
2.6310773 1.7080796 1.6547695 -0.1555434763431549 -0.051912661641836166 -0.9864640235900879 247.0 50.0 1.0 1.0
2.6458774 1.6784884 1.6528916 -0.09694574773311615 -0.029619183391332626 -0.9948487877845764 241.0 50.0 1.0 1.0
2.4828236 1.617321 1.672568 -0.15409155189990997 -0.08624785393476486 -0.9842851161956787 255.0 51.0 1.0 1.0
2.4967308 1.5893116 1.6705909 -0.11942868679761887 -0.05108578875660896 -0.9915276169776917 255.0 51.0 1.0 1.0
2.3273733 1.520627 1.6767025 -0.05334710329771042 -0.004392520524561405 -0.9985663294792175 253.0 52.0 1.0 1.0
2.323009 1.483215 1.6622306 -0.07385127246379852 -0.024975610896945 -0.996956467628479 250.0 52.0 1.0 1.0
2.1955597 1.4399196 1.6901587 0.08140328526496887 -0.11259906738996506 -0.9903003573417664 255.0 53.0 1.0 1.0
2.2105634 1.4167986 1.6901497 -0.014516869559884071 -0.06530490517616272 -0.9977597594261169 255.0 53.0 1.0 1.0
2.0584404 1.3561078 1.6933144 -0.08488640934228897 -0.025944441556930542 -0.9960528016090393 255.0 54.0 1.0 1.0
2.0698023 1.3326418 1.6910411 -0.13648079335689545 -0.07804117351770401 -0.9875639081001282 255.0 54.0 1.0 1.0
1.9415886 1.2849108 1.7063154 -0.12543226778507233 -0.06484316289424896 -0.9899808168411255 255.0 55.0 1.0 1.0
1.9468576 1.259199 1.6992139 -0.09934262186288834 -0.04758303612470627 -0.9939149618148804 255.0 55.0 1.0 1.0
1.8142854 1.2074512 1.7042042 -0.09301137924194336 -0.013090665452182293 -0.995578944683075 253.0 56.0 1.0 1.0
1.829517 1.1900538 1.7066611 -0.1301957368850708 -0.049238190054893494 -0.9902649521827698 255.0 56.0 1.0 1.0
1.7109238 1.1459552 1.7192072 -0.15749980509281158 -0.05324425548315048 -0.9860826134681702 255.0 57.0 1.0 1.0
1.712602 1.1211947 1.7089467 -0.1701195389032364 -0.06616879254579544 -0.983199417591095 253.0 57.0 1.0 1.0
1.6004499 1.0788047 1.7219326 -0.1536252349615097 -0.03995845094323158 -0.9873209595680237 255.0 58.0 1.0 1.0
1.6166896 1.0652202 1.7272524 0.22912095487117767 -0.039362743496894836 -0.9726017713546753 255.0 58.0 1.0 1.0
1.5206631 1.0331144 1.7563874 0.27236318588256836 -0.06315072625875473 -0.9601199626922607 255.0 59.0 1.0 1.0
1.5314454 1.0170813 1.756382 0.27236318588256836 -0.06315072625875473 -0.9601199626922607 255.0 59.0 1.0 1.0
1.4086772 0.96636444 1.7514184 -0.3442845642566681 -0.01006676722317934 -0.9388113617897034 250.0 60.0 1.0 1.0
1.4164469 0.94995129 1.7485503 -0.36432164907455444 -0.03299558535218239 -0.9306885600090027 250.0 60.0 1.0 1.0
1.3015501 0.90289825 1.7474589 -0.3575506806373596 -0.4394424557685852 -0.8240436315536499 247.0 61.0 1.0 1.0
1.3065343 0.88614929 1.741528 -0.07427888363599777 -0.4427059292793274 -0.8935849070549011 244.0 61.0 1.0 1.0
1.2282876 0.86257845 1.788166 -0.04447367042303085 -0.06296203285455704 -0.9970245361328125 255.0 62.0 1.0 1.0
1.233061 0.84670234 1.7820354 -0.11486175656318665 -0.0014447232242673635 -0.9933804273605347 255.0 62.0 1.0 1.0
1.1310698 0.80643582 1.7960867 -0.30904218554496765 -0.2629052400588989 -0.9139878153800964 255.0 63.0 1.0 1.0
1.1354856 0.79169267 1.7897562 -0.30904218554496765 -0.2629052400588989 -0.9139878153800964 255.0 63.0 1.0 1.0
1.317129 0.46455953 -1.5575588 0.20015288889408112 0.010972404852509499 0.9797031879425049 17.0 2.0 1.0 1.0
1.1561379 0.37876144 -1.5926452 0.1507824808359146 0.0631423145532608 0.9865483641624451 255.0 0.0 1.0 1.0
1.1716019 0.37033755 -1.6085453 0.13327601552009583 0.019150832667946815 0.9908939599990845 253.0 0.0 1.0 1.0
1.2454245 0.41729391 -1.5818733 0.13543851673603058 -0.016838543117046356 0.9906426668167114 208.0 1.0 1.0 1.0
1.2764624 0.41293639 -1.6157227 0.1183212623000145 -0.015836112201213837 0.9928491711616516 181.0 1.0 1.0 1.0
1.480901 0.5130145 -1.6227322 0.19704298675060272 0.014763660728931427 0.9802835583686829 133.0 3.0 1.0 1.0
1.4993498 0.50193346 -1.637128 0.24924211204051971 0.025026384741067886 0.9681177735328674 214.0 3.0 1.0 1.0
1.5971876 0.56039929 -1.6329708 0.21449120342731476 0.048753608018159866 0.9755083322525024 250.0 4.0 1.0 1.0
1.6029451 0.54367864 -1.6329899 0.11412738263607025 0.03532017394900322 0.9928380846977234 253.0 4.0 1.0 1.0
1.7198943 0.61011815 -1.6435204 0.16726675629615784 0.018788248300552368 0.9857326149940491 255.0 5.0 1.0 1.0
1.7177281 0.58921218 -1.6355147 0.1290682554244995 0.03255879133939743 0.991101086139679 255.0 5.0 1.0 1.0
1.8231531 0.65311205 -1.6309016 0.15030977129936218 0.03646158054471016 0.9879664182662964 255.0 6.0 1.0 1.0
1.8385446 0.63702941 -1.6386482 0.14245207607746124 0.03338784724473953 0.9892383813858032 253.0 6.0 1.0 1.0
1.964448 0.70946217 -1.6468742 0.16251875460147858 0.10638515651226044 0.980953574180603 250.0 7.0 1.0 1.0
1.9806442 0.69200021 -1.6543226 0.1655869334936142 0.10950236022472382 0.9800970554351807 255.0 7.0 1.0 1.0
2.1220303 0.77175015 -1.6688166 0.1503356248140335 0.06297121942043304 0.9866275191307068 255.0 8.0 1.0 1.0
2.1390767 0.75273031 -1.6759691 0.1503356248140335 0.06297121942043304 0.9866275191307068 255.0 8.0 1.0 1.0
2.2534513 0.82525766 -1.6630427 0.10069921612739563 0.026827078312635422 0.9945551753044128 253.0 9.0 1.0 1.0
2.2836421 0.80934781 -1.6790071 0.1301533579826355 0.051734160631895065 0.9901432394981384 255.0 9.0 1.0 1.0
2.4458492 0.90001309 -1.6927842 0.16072601079940796 0.03095277026295662 0.9865136742591858 255.0 10.0 1.0 1.0
2.4487939 0.87213528 -1.6884573 0.16244597733020782 0.03271731361746788 0.9861748218536377 247.0 10.0 1.0 1.0
2.6116333 0.96611762 -1.6944895 0.14560545980930328 0.08912236988544464 0.9853203892707825 253.0 11.0 1.0 1.0
2.618365 0.93760031 -1.6924412 0.1624080091714859 0.05229675769805908 0.9853367805480957 244.0 11.0 1.0 1.0
2.7823725 1.0341685 -1.6897614 0.08856391906738281 0.05954333767294884 0.9942891597747803 235.0 12.0 1.0 1.0
2.8093812 1.0109022 -1.6996812 0.17519129812717438 0.05281764268875122 0.983116626739502 238.0 12.0 1.0 1.0
3.0068705 1.1217232 -1.7081752 0.22310851514339447 -0.03764808550477028 0.9740662574768066 229.0 13.0 1.0 1.0
3.0317125 1.0950139 -1.7157222 0.22310851514339447 -0.03764808550477028 0.9740662574768066 232.0 13.0 1.0 1.0
3.2540135 1.2177308 -1.7260765 0.14276453852653503 0.02592477574944496 0.9894171357154846 226.0 14.0 1.0 1.0
3.2766666 1.1872905 -1.731449 0.11090846359729767 -0.004075469449162483 0.9938222169876099 226.0 14.0 1.0 1.0
3.5238712 1.3228486 -1.7418911 0.10314386337995529 0.028537632897496223 0.9942569732666016 208.0 15.0 1.0 1.0
3.5511522 1.2908773 -1.7486465 0.14042969048023224 0.029340699315071106 0.9896557331085205 202.0 15.0 1.0 1.0
3.1776612 1.9780799 -1.6119024 0.15007750689983368 0.03638501092791557 0.9880045652389526 208.0 16.0 1.0 1.0
3.2201521 1.9580971 -1.6229848 0.14968997240066528 0.04429944232106209 0.987740159034729 211.0 16.0 1.0 1.0
3.4746134 2.1578879 -1.6309085 0.12129129469394684 0.07846924662590027 0.9895104765892029 199.0 17.0 1.0 1.0
3.525588 2.1387694 -1.6442502 0.15272188186645508 0.08044691383838654 0.9849895238876343 205.0 17.0 1.0 1.0
3.8326802 2.3737824 -1.6575121 0.0709150955080986 0.08859850466251373 0.9935397505760193 229.0 18.0 1.0 1.0
3.8797896 2.3471606 -1.6671867 0.1197943165898323 0.1053583100438118 0.9871924519538879 226.0 18.0 1.0 1.0
3.9070041 2.4141114 -1.5502667 0.695103645324707 -0.7188935279846191 0.004799136891961098 255.0 19.0 1.0 1.0
3.9547617 2.3868103 -1.559235 0.8055635094642639 -0.5921934247016907 -0.019350195303559303 255.0 19.0 1.0 1.0
3.9069066 2.4092836 -1.4150795 0.666201114654541 -0.7435365319252014 -0.05770239233970642 255.0 20.0 1.0 1.0
3.9548237 2.3820784 -1.4233419 0.7670367956161499 -0.6381761431694031 -0.06622467935085297 255.0 20.0 1.0 1.0
3.9327331 2.4204216 -1.2919384 0.6473185420036316 -0.7583572268486023 -0.07663489133119583 255.0 21.0 1.0 1.0
3.9479425 2.3731778 -1.2887281 0.7415627241134644 -0.6657733917236328 -0.08264633268117905 255.0 21.0 1.0 1.0
3.9128921 2.4034436 -1.1552329 0.6356921195983887 -0.7718715667724609 0.010480403900146484 255.0 22.0 1.0 1.0
3.9577909 2.3743367 -1.1611027 0.6762271523475647 -0.7366853356361389 0.0033978126011788845 255.0 22.0 1.0 1.0
3.9288428 2.40941 -1.0329502 0.5731440782546997 -0.8191370368003845 -0.02281343936920166 255.0 23.0 1.0 1.0
3.9605441 2.3721685 -1.0347182 0.651930034160614 -0.756659209728241 -0.04953833669424057 255.0 23.0 1.0 1.0
3.9381881 2.4122486 -0.91029084 0.5162475109100342 -0.8555426597595215 -0.039184071123600006 255.0 24.0 1.0 1.0
3.9733274 2.3769391 -0.91262913 0.6141834855079651 -0.7888878583908081 -0.02084929868578911 255.0 24.0 1.0 1.0
3.9284139 2.4024322 -0.7841596 0.4937059283256531 -0.869299054145813 -0.02394857443869114 255.0 25.0 1.0 1.0
3.9668908 2.3692663 -0.78686243 0.5394395589828491 -0.8412296175956726 -0.03657302260398865 255.0 25.0 1.0 1.0
3.9490466 2.4121561 -0.66534597 0.45217621326446533 -0.8918717503547668 -0.010068442672491074 255.0 26.0 1.0 1.0
3.974086 2.3706808 -0.66536659 0.504891037940979 -0.8631725907325745 -0.004249693360179663 255.0 26.0 1.0 1.0
3.9529574 2.4125936 -0.5453133 0.42704665660858154 -0.9041191339492798 -0.014129878021776676 255.0 27.0 1.0 1.0
3.9745915 2.3690403 -0.54486698 0.4740893244743347 -0.8804200887680054 -0.009991643019020557 255.0 27.0 1.0 1.0
3.9648805 2.4169672 -0.4261432 0.402906209230423 -0.915240466594696 -0.0012110670795664191 255.0 28.0 1.0 1.0
3.98313 2.3712432 -0.42543459 0.45012784004211426 -0.8925312161445618 -0.027801794931292534 255.0 28.0 1.0 1.0
3.966521 2.4169605 -0.30632949 0.33447444438934326 -0.9423176050186157 0.012817200273275375 255.0 29.0 1.0 1.0
3.9950473 2.3773336 -0.30661273 0.4571845233440399 -0.8889662027359009 -0.0268617682158947 255.0 29.0 1.0 1.0
3.9757473 2.4215753 -0.18777294 0.1784549057483673 -0.9836301803588867 0.025011105462908745 255.0 30.0 1.0 1.0
3.9974592 2.3777633 -0.18763344 0.4111305773258209 -0.9114431738853455 -0.015591636300086975 255.0 30.0 1.0 1.0
3.9755526 2.4204485 -0.069180138 0.14684219658374786 -0.9891595840454102 0.0008136275573633611 255.0 31.0 1.0 1.0
3.9938147 2.3745904 -0.069083735 0.3750973641872406 -0.9267618060112 0.020361214876174927 255.0 31.0 1.0 1.0
5.3437462 2.0366063 0.061441619 -0.20239605009555817 -0.9694623947143555 0.1384863704442978 34.0 32.0 1.0 5.0
5.147172 1.9001584 0.05885563 -0.1705007553100586 -0.9799033999443054 0.10353197902441025 17.0 32.0 1.0 2.0
5.4496245 2.0746398 0.21126805 -0.047091200947761536 -0.9988097548484802 -0.012704465538263321 32.0 33.0 1.0 5.0
5.0847821 1.874952 0.19623265 -0.18725334107875824 -0.9805232286453247 -0.05925013870000839 12.0 33.0 1.0 2.0
5.5178409 2.0993588 0.36473963 -0.13517850637435913 -0.9900107979774475 -0.040067192167043686 30.0 34.0 1.0 5.0
5.6144586 2.0690658 0.36962196 0.1436120569705963 -0.9877082109451294 0.06170950084924698 25.0 34.0 1.0 5.0
5.462688 2.0782111 0.51108396 -0.07360503077507019 -0.9902856945991516 -0.11796873062849045 29.0 35.0 1.0 5.0
5.5514712 2.045682 0.51730448 0.011110503226518631 -0.9946835041046143 -0.10237818956375122 27.0 35.0 1.0 5.0
5.0333495 1.9126588 0.6098789 -0.0254971943795681 -0.6373234987258911 -0.770174503326416 154.0 36.0 1.0 1.0
5.0419369 1.855703 0.60847068 0.005989318713545799 -0.7388551235198975 -0.6738376021385193 190.0 36.0 1.0 1.0
5.3806386 2.0423713 0.80258745 -0.0 -1.0 0.0 34.0 37.0 1.0 5.0
5.4603739 2.0692158 0.96745205 0.05723953992128372 -0.998254656791687 0.014530284330248833 31.0 38.0 1.0 5.0
5.4447298 1.9982903 0.96084845 -0.017558544874191284 -0.9932032823562622 -0.11506032198667526 33.0 38.0 1.0 5.0
5.4327154 2.0553148 1.1167048 0.12578648328781128 -0.9561728835105896 -0.26440730690956116 32.0 39.0 1.0 5.0
5.5572395 2.0361261 1.1378013 0.009310152381658554 -0.9719208478927612 -0.23512372374534607 30.0 39.0 1.0 5.0
5.481319 2.0713551 1.2848819 0.06331120431423187 -0.9759941101074219 -0.2083916813135147 30.0 40.0 1.0 5.0
5.521091 2.0205178 1.2891062 -0.007733565755188465 -0.9697929620742798 -0.24380697309970856 31.0 40.0 1.0 5.0
5.4568586 2.0575833 1.4391572 0.021282756701111794 -0.982316255569458 -0.18601581454277039 31.0 41.0 1.0 5.0
5.4562607 1.9922893 1.4333436 -0.03350421413779259 -0.9738428592681885 -0.22473903000354767 31.0 41.0 1.0 5.0
4.7175474 1.7748026 1.3836603 -0.1091126799583435 -0.1301821917295456 -0.9854679107666016 136.0 42.0 1.0 1.0
4.7322888 1.7239408 1.382548 -0.18621201813220978 -0.12385281175374985 -0.9746720790863037 151.0 42.0 1.0 1.0
4.4001379 1.6508102 1.4246598 -0.12147829681634903 -0.07952520996332169 -0.9894031882286072 136.0 43.0 1.0 1.0
4.395638 1.5967534 1.4176451 -0.1457526981830597 -0.16902224719524384 -0.9747756719589233 169.0 43.0 1.0 1.0
4.183465 1.5651776 1.4841664 -0.004020752850919962 -0.9042489528656006 -0.4269866943359375 255.0 44.0 1.0 1.0
4.1925302 1.5186517 1.4815958 -0.04281570389866829 -0.9302380084991455 -0.36445024609565735 255.0 44.0 1.0 1.0
3.7304688 1.3917737 1.442198 -0.11842985451221466 -0.09121367335319519 -0.9887640476226807 196.0 45.0 1.0 1.0
3.7484159 1.3538666 1.4435185 -0.1758052557706833 0.0312880203127861 -0.9839276075363159 205.0 45.0 1.0 1.0
3.5445836 1.3180302 1.4848588 -0.11149327456951141 -0.03260209783911705 -0.9932302832603455 255.0 46.0 1.0 1.0
3.5582321 1.2807949 1.4848186 -0.1405198723077774 -0.07955188304185867 -0.9868766665458679 255.0 46.0 1.0 1.0
3.3030217 1.2247523 1.4946862 -0.15947973728179932 -0.0885922983288765 -0.9832180142402649 255.0 47.0 1.0 1.0
3.315707 1.1900507 1.4946487 -0.13004736602306366 -0.07387977838516235 -0.9887515306472778 255.0 47.0 1.0 1.0
3.019944 1.8623894 1.6254206 -0.10893972963094711 -0.007577849086374044 -0.9940195083618164 250.0 48.0 1.0 1.0
3.026866 1.8231072 1.6187401 -0.15570850670337677 -0.05213410034775734 -0.9864263534545898 247.0 48.0 1.0 1.0
2.8045068 1.7335002 1.6225208 -0.12200485169887543 -0.077328160405159 -0.9895126819610596 244.0 49.0 1.0 1.0
2.8317654 1.7095541 1.6278063 -0.15955941379070282 -0.10902634263038635 -0.9811493754386902 253.0 49.0 1.0 1.0
2.6423118 1.6376358 1.6397702 -0.06289363652467728 -0.0646863505244255 -0.9959217309951782 247.0 50.0 1.0 1.0
2.6472554 1.6024965 1.632291 -0.19461743533611298 -0.09994340687990189 -0.9757742285728455 244.0 50.0 1.0 1.0
2.4866703 1.5465131 1.6528407 -0.1371917873620987 -0.07521315664052963 -0.9876848459243774 247.0 51.0 1.0 1.0
2.4968195 1.5167209 1.6488957 -0.056995540857315063 -0.05425628647208214 -0.9968990683555603 244.0 51.0 1.0 1.0
2.3471823 1.4642417 1.66838 -0.1441868245601654 -0.07474590092897415 -0.9867234826087952 255.0 52.0 1.0 1.0
2.3507333 1.4324011 1.6601048 -0.10584574937820435 -0.07175423204898834 -0.9917902946472168 253.0 52.0 1.0 1.0
2.2167814 1.3882084 1.6836082 -0.15133458375930786 -0.09260454773902893 -0.9841352105140686 255.0 53.0 1.0 1.0
2.2283728 1.3631126 1.6814322 -0.09553573280572891 -0.09325503557920456 -0.9910481572151184 255.0 53.0 1.0 1.0
2.0836976 1.3108863 1.6909984 -0.0819653794169426 -0.017289943993091583 -0.99648517370224 255.0 54.0 1.0 1.0
2.0833127 1.2803096 1.6796639 -0.13773304224014282 -0.08638259023427963 -0.9866952896118164 255.0 54.0 1.0 1.0
1.9490834 1.2318372 1.689716 -0.13054418563842773 -0.04741036891937256 -0.9903082847595215 255.0 55.0 1.0 1.0
1.9619212 1.2113087 1.6897069 -0.12565328180789948 -0.042447514832019806 -0.9911656975746155 255.0 55.0 1.0 1.0
1.8366159 1.1674389 1.7016959 -0.15832549333572388 -0.07785465568304062 -0.9843127727508545 253.0 56.0 1.0 1.0
1.8461092 1.1464283 1.6992236 -0.14913184940814972 -0.07796743512153625 -0.9857386946678162 255.0 56.0 1.0 1.0
1.7113736 1.0949118 1.6960948 -0.14386148750782013 -0.06644909828901291 -0.9873644113540649 247.0 57.0 1.0 1.0
1.7227907 1.0768799 1.6960872 -0.1387597620487213 -0.05705013498663902 -0.9886814951896667 250.0 57.0 1.0 1.0
1.6278117 1.0482213 1.7272201 0.22919733822345734 -0.029726168140769005 -0.9729259610176086 255.0 58.0 1.0 1.0
1.6589538 1.0437881 1.748515 0.23310929536819458 -0.029697783291339874 -0.9719969630241394 255.0 58.0 1.0 1.0
1.5493461 1.0057032 1.7646406 0.19868601858615875 0.014847736805677414 -0.9799506664276123 255.0 59.0 1.0 1.0
1.5354186 0.97387207 1.7370043 -0.3204129636287689 -0.01231336873024702 -0.9471979141235352 250.0 59.0 1.0 1.0
1.4217031 0.93199015 1.7427961 -0.3411221504211426 0.006303182803094387 -0.9399978518486023 250.0 60.0 1.0 1.0
1.4220248 0.91096973 1.7313374 -0.3411221504211426 0.006303182803094387 -0.9399978518486023 247.0 60.0 1.0 1.0
1.3247551 0.87834764 1.7533559 -0.08192107081413269 -0.14844617247581482 -0.9855214953422546 253.0 61.0 1.0 1.0
1.3181463 0.85414219 1.7326078 0.2788003981113434 -0.05825577303767204 -0.9585806131362915 247.0 61.0 1.0 1.0
1.2376487 0.83086127 1.775885 -0.11030306667089462 -0.2789333164691925 -0.9539546370506287 255.0 62.0 1.0 1.0
1.2441785 0.81639075 1.772817 -0.38787201046943665 -0.16468746960163116 -0.9068810939788818 255.0 62.0 1.0 1.0
1.1255755 0.76732969 1.7612617 -0.6862119436264038 -0.2666594684123993 -0.6767613887786865 255.0 63.0 1.0 1.0
1.1274868 0.75137401 1.7517669 -0.5478749871253967 -0.1379549652338028 -0.8251069188117981 255.0 63.0 1.0 1.0
5.5798206 2.0575864 0.21538724 -0.18725334107875824 -0.9805232286453247 -0.05925013870000839 20.0 33.0 2.0 5.0
1.1767114 0.34509099 -1.6054097 0.13327601552009583 0.019150832667946815 0.9908939599990845 202.0 0.0 1.0 1.0
1.1800287 0.35948873 -1.6149262 0.13327601552009583 0.019150832667946815 0.9908939599990845 247.0 0.0 1.0 1.0
1.2391899 0.38659772 -1.5634617 0.16356252133846283 0.030321527272462845 0.9860668182373047 25.0 1.0 1.0 1.0
1.3717265 0.43601403 -1.6052521 0.209120973944664 0.12083632498979568 0.9703952670097351 17.0 2.0 1.0 1.0
1.5174348 0.47296807 -1.6458083 0.2183193564414978 -0.0076865144073963165 0.975847065448761 255.0 3.0 1.0 1.0
1.5018415 0.48537192 -1.6342869 0.24924211204051971 0.025026384741067886 0.9681177735328674 238.0 3.0 1.0 1.0
1.6111737 0.50918007 -1.6302712 0.13865555822849274 0.04481605067849159 0.9893261194229126 255.0 4.0 1.0 1.0
1.6139867 0.52868235 -1.6385785 0.11417587101459503 0.019963238388299942 0.9932599067687988 255.0 4.0 1.0 1.0
1.7466221 0.55861151 -1.6516281 0.14854639768600464 0.052385974675416946 0.9875168800354004 255.0 5.0 1.0 1.0
1.7378781 0.57589895 -1.6489315 0.1290682554244995 0.03255879133939743 0.991101086139679 255.0 5.0 1.0 1.0
1.8514216 0.5984472 -1.6387135 0.15799035131931305 0.04925985261797905 0.9862111806869507 253.0 6.0 1.0 1.0
1.8450768 0.61776668 -1.6386911 0.14245207607746124 0.03338784724473953 0.9892383813858032 250.0 6.0 1.0 1.0
2.0006142 0.65238154 -1.6593436 0.16283437609672546 0.10053173452615738 0.9815183877944946 250.0 7.0 1.0 1.0
1.9907204 0.67225361 -1.6568443 0.06476415693759918 0.0014215600676834583 0.9978995323181152 253.0 7.0 1.0 1.0
2.1512518 0.70682621 -1.6736691 0.13475853204727173 0.033002693206071854 0.9903286695480347 255.0 8.0 1.0 1.0
2.1346183 0.72616661 -1.6665152 0.13783307373523712 0.05503656342625618 0.9889251589775085 255.0 8.0 1.0 1.0
2.3125141 0.76554805 -1.6881965 0.061400800943374634 0.017987532541155815 0.9979511499404907 253.0 9.0 1.0 1.0
2.2919521 0.78541756 -1.6790609 0.16146209836006165 0.08358211070299149 0.9833331108093262 255.0 9.0 1.0 1.0
2.4919243 0.82920867 -1.7059653 0.1554366946220398 0.024589603766798973 0.9875397682189941 253.0 10.0 1.0 1.0
2.4577522 0.84647286 -1.6885152 0.1331138163805008 0.04141620174050331 0.9902350306510925 247.0 10.0 1.0 1.0
2.6568065 0.88914013 -1.7050036 0.1485528200864792 0.04112748056650162 0.9880489110946655 250.0 11.0 1.0 1.0
2.6279991 0.91015965 -1.6925033 0.1215604618191719 0.010645710863173008 0.9925268888473511 235.0 11.0 1.0 1.0
2.8562312 0.96078861 -1.7156032 0.17377793788909912 0.02613772824406624 0.9844380021095276 232.0 12.0 1.0 1.0
2.8460386 0.99060833 -1.7155695 0.16096463799476624 -0.00962077546864748 0.98691326379776 238.0 12.0 1.0 1.0
3.0806782 1.0403984 -1.7308571 0.08382721990346909 0.007896305061876774 0.9964490532875061 238.0 13.0 1.0 1.0
3.059639 1.0690671 -1.725186 0.15087014436721802 -0.02073024772107601 0.9883362054824829 238.0 13.0 1.0 1.0
3.3143167 1.1230834 -1.7386808 0.06908594071865082 -0.002467677230015397 0.9976076483726501 208.0 14.0 1.0 1.0
3.2990193 1.1565046 -1.7368634 0.19353319704532623 0.11770732700824738 0.9740071296691895 220.0 14.0 1.0 1.0
3.6185832 1.2303311 -1.768922 0.11033516377210617 0.03937602788209915 0.9931141138076782 205.0 15.0 1.0 1.0
3.5575817 1.2512449 -1.7453738 0.1019640639424324 0.0042780255898833275 0.9947788715362549 184.0 15.0 1.0 1.0
3.29217 1.9087319 -1.6388824 0.1876625269651413 0.04139016941189766 0.9813610911369324 202.0 16.0 1.0 1.0
3.2751844 1.9449432 -1.6404452 0.13316181302070618 -0.014545376412570477 0.9909875392913818 220.0 16.0 1.0 1.0
3.6017005 2.0831449 -1.6591517 0.14865145087242126 0.04465343430638313 0.9878810048103333 196.0 17.0 1.0 1.0
3.5605321 2.1093445 -1.6502484 0.14969372749328613 0.03147494047880173 0.9882313013076782 190.0 17.0 1.0 1.0
3.9377797 2.2710953 -1.6714312 0.1025724709033966 0.08823353052139282 0.9908045530319214 208.0 18.0 1.0 1.0
3.9299676 2.3217216 -1.6783065 0.07221667468547821 0.10687394440174103 0.9916464686393738 235.0 18.0 1.0 1.0
4.0629444 2.3375642 -1.5823555 0.9195297956466675 -0.3922739326953888 0.024208825081586838 255.0 19.0 1.0 1.0
4.0023499 2.3587759 -1.56827 0.8396214246749878 -0.5416215062141418 0.041012559086084366 255.0 19.0 1.0 1.0
4.033618 2.3159316 -1.4340487 0.9014930129051208 -0.42883947491645813 -0.058370400220155716 253.0 20.0 1.0 1.0
4.0025744 2.3541372 -1.4316708 0.8364095687866211 -0.5437943935394287 -0.0686047226190567 255.0 20.0 1.0 1.0
4.0435162 2.3168557 -1.3039126 0.8586077690124512 -0.5009219646453857 -0.10894930362701416 255.0 21.0 1.0 1.0
3.9924729 2.343441 -1.295275 0.8189672827720642 -0.563961386680603 -0.10601963102817535 255.0 21.0 1.0 1.0
4.0436425 2.3121724 -1.171937 0.8244656324386597 -0.5599898099899292 -0.08165597915649414 255.0 22.0 1.0 1.0
3.9857504 2.3347542 -1.1621637 0.7532418966293335 -0.6535981297492981 -0.07373078912496567 255.0 22.0 1.0 1.0
4.0228724 2.2964976 -1.0383232 0.8062617778778076 -0.5863502621650696 -0.07832808792591095 255.0 23.0 1.0 1.0
3.9918761 2.3345368 -1.0365523 0.7356164455413818 -0.6743742823600769 -0.06393556296825409 255.0 23.0 1.0 1.0
4.0290194 2.2971416 -0.91428405 0.8091802000999451 -0.5756641030311584 -0.11763624846935272 255.0 24.0 1.0 1.0
3.9810307 2.3253305 -0.90885198 0.7280442118644714 -0.6833390593528748 -0.054765861481428146 255.0 24.0 1.0 1.0
4.0533061 2.3071749 -0.79434961 0.7890510559082031 -0.6110616326332092 -0.06326160579919815 255.0 25.0 1.0 1.0
4.0084925 2.3375587 -0.79030222 0.6998775005340576 -0.7131847143173218 -0.03922971710562706 255.0 25.0 1.0 1.0
4.067584 2.3124146 -0.6728667 0.712009608745575 -0.6999528408050537 -0.05575218424201012 255.0 26.0 1.0 1.0
3.9986742 2.3289618 -0.66545314 0.652885377407074 -0.756432294845581 -0.0393819622695446 255.0 26.0 1.0 1.0
4.0544033 2.3029785 -0.54917991 0.6627460718154907 -0.7464993000030518 -0.059214603155851364 255.0 27.0 1.0 1.0
4.0163326 2.3373072 -0.54728848 0.6045220494270325 -0.795691192150116 -0.03779790177941322 255.0 27.0 1.0 1.0
4.0353694 2.2893016 -0.42590952 0.651700496673584 -0.7564303874969482 -0.055673133581876755 255.0 28.0 1.0 1.0
4.0042863 2.3274252 -0.42515656 0.5607210993766785 -0.8268182277679443 -0.044310327619314194 255.0 28.0 1.0 1.0
4.0578399 2.301048 -0.30777323 0.5980774760246277 -0.7986616492271423 -0.06665505468845367 255.0 29.0 1.0 1.0
4.0231647 2.3373969 -0.30696225 0.5318089127540588 -0.8463103175163269 -0.03062961995601654 255.0 29.0 1.0 1.0
4.0498562 2.295517 -0.18790457 0.5715616345405579 -0.8189460635185242 -0.05142531916499138 255.0 30.0 1.0 1.0
4.0048537 2.3257568 -0.18691811 0.4628741443157196 -0.8863813877105713 0.008685656823217869 255.0 30.0 1.0 1.0
4.0357161 2.2865019 -0.069076732 0.5431495904922485 -0.8392390012741089 0.025815222412347794 255.0 31.0 1.0 1.0
4.0288363 2.3386838 -0.069347017 0.42661768198013306 -0.9044318795204163 -0.0006253368919715285 255.0 31.0 1.0 1.0
4.9741588 1.7187824 0.056239247 0.012652241624891758 -0.9965689182281494 0.08179406821727753 8.0 32.0 1.0 2.0
5.0398293 1.7393634 0.19285476 0.10421532392501831 -0.9923049211502075 -0.0668586865067482 5.0 33.0 1.0 2.0
11.094942 3.8275473 0.72541893 -0.0007968518184497952 -0.9976822137832642 0.06804142892360687 11.0 34.0 1.0 5.0
11.12943 3.9703794 0.73048872 -0.07000937312841415 -0.9969115853309631 -0.035580962896347046 8.0 34.0 1.0 5.0
9.8572197 3.4001715 0.91198051 0.07493088394403458 -0.9931509494781494 -0.08964686095714569 11.0 35.0 1.0 5.0
5.0384021 1.7354589 0.60333323 -0.0067491717636585236 -0.9695033431053162 -0.24498531222343445 208.0 36.0 1.0 1.0
5.0423932 1.7961518 0.60609525 -0.2732846736907959 -0.7632680535316467 -0.5854377150535583 190.0 36.0 1.0 1.0
5.1125703 1.7588617 0.75368553 -0.29934391379356384 -0.944237470626831 0.1371455192565918 14.0 37.0 1.0 2.0
6.8252468 2.3441155 1.1954826 -0.08099407702684402 -0.9838211536407471 0.1597996950149536 17.0 38.0 1.0 5.0
5.6401505 2.0032799 0.99146193 -0.04370109364390373 -0.9905217885971069 0.13021807372570038 27.0 38.0 1.0 5.0
5.7510681 1.9715213 1.168576 -0.05983614921569824 -0.973465621471405 -0.22087158262729645 25.0 39.0 1.0 5.0
5.5375686 1.9633924 1.1293553 -0.01488685142248869 -0.9772775769233704 -0.2114405333995819 33.0 39.0 1.0 5.0
5.4809508 1.8765713 1.2700531 -0.04560272768139839 -0.9734960794448853 -0.2241111397743225 27.0 40.0 1.0 5.0
5.5272536 1.9573876 1.2855438 -0.04085535183548927 -0.9744529128074646 -0.22084438800811768 31.0 40.0 1.0 5.0
5.4895196 1.8750428 1.4312299 -0.050370581448078156 -0.9740339517593384 -0.22072789072990417 31.0 41.0 1.0 5.0
5.4768662 1.9350564 1.433211 -0.048519060015678406 -0.9733671545982361 -0.22405889630317688 31.0 41.0 1.0 5.0
4.7236252 1.6094886 1.3696676 -0.17846590280532837 -0.1411220282316208 -0.9737733006477356 136.0 42.0 1.0 1.0
4.7210236 1.6640378 1.3739595 -0.15173831582069397 -0.12944476306438446 -0.9799078702926636 142.0 42.0 1.0 1.0
4.3593364 1.4809067 1.3954337 -0.10090895742177963 -0.05845212936401367 -0.9931771159172058 154.0 43.0 1.0 1.0
4.3796616 1.5392154 1.407092 -0.11168426275253296 -0.19542858004570007 -0.9743378758430481 175.0 43.0 1.0 1.0
4.2127171 1.4268218 1.4776603 -0.07291621714830399 -0.9526008367538452 -0.29535552859306335 255.0 44.0 1.0 1.0
4.1760116 1.4633679 1.4701399 -0.02098734676837921 -0.9485692977905273 -0.3158731162548065 255.0 44.0 1.0 1.0
3.7510927 1.2666012 1.4338462 -0.23564040660858154 -0.03501394763588905 -0.9712093472480774 217.0 45.0 1.0 1.0
3.7269328 1.3021322 1.4298024 -0.14265161752700806 0.040916454046964645 -0.9889268279075623 202.0 45.0 1.0 1.0
3.5279064 1.1869448 1.4612956 -0.125525563955307 -0.06262704730033875 -0.9901116490364075 250.0 46.0 1.0 1.0
3.5468857 1.2348915 1.4744973 -0.12053104490041733 -0.10846826434135437 -0.9867659211158752 255.0 46.0 1.0 1.0
3.3469737 1.1226491 1.4976552 0.11095152795314789 -0.03808489069342613 -0.9930958151817322 255.0 47.0 1.0 1.0
3.3245578 1.1540565 1.4930065 -0.14097848534584045 -0.08855327218770981 -0.9860442876815796 255.0 47.0 1.0 1.0
3.0424004 1.7465893 1.6069945 -0.13109835982322693 -0.13115325570106506 -0.9826555848121643 241.0 48.0 1.0 1.0
3.0050945 1.7673372 1.5970141 -0.18119488656520844 -0.1059071272611618 -0.977728009223938 235.0 48.0 1.0 1.0
2.845268 1.6372886 1.6153649 -0.1139124184846878 -0.07039445638656616 -0.9909937381744385 253.0 49.0 1.0 1.0
2.8402884 1.6743338 1.6224465 -0.11118731647729874 -0.08588822931051254 -0.9900811314582825 250.0 49.0 1.0 1.0
2.6680732 1.5395762 1.6247542 -0.17338594794273376 -0.031318146735429764 -0.9843559265136719 241.0 50.0 1.0 1.0
2.6639416 1.5746826 1.6322347 -0.16683685779571533 0.0005641853203997016 -0.9859843254089355 250.0 50.0 1.0 1.0
2.5251167 1.4622971 1.6468627 -0.15471670031547546 -0.06349585205316544 -0.9859163761138916 255.0 51.0 1.0 1.0
2.5126164 1.490486 1.6488429 -0.20453481376171112 -0.08664128929376602 -0.9750173687934875 250.0 51.0 1.0 1.0
2.3832736 1.384521 1.6621083 -0.14397694170475006 -0.061952657997608185 -0.987639844417572 255.0 52.0 1.0 1.0
2.3656564 1.4076998 1.6600554 -0.14676879346370697 -0.06931915134191513 -0.9867389798164368 255.0 52.0 1.0 1.0
2.2274787 1.2991369 1.6597226 -0.10944122821092606 -0.06661920994520187 -0.9917582869529724 255.0 53.0 1.0 1.0
2.233917 1.3345188 1.6748904 -0.12250442057847977 -0.1188802421092987 -0.9853224158287048 255.0 53.0 1.0 1.0
2.0898573 1.2246671 1.6637555 -0.13899871706962585 -0.07229651510715485 -0.9876500368118286 255.0 54.0 1.0 1.0
2.091006 1.2550206 1.6750909 -0.15877936780452728 -0.04644932970404625 -0.9862208962440491 255.0 54.0 1.0 1.0
1.9841778 1.1682578 1.6872915 -0.08718551695346832 -0.08570162206888199 -0.9924988746643066 255.0 55.0 1.0 1.0
1.9745523 1.1906886 1.6896663 -0.0897032767534256 -0.04426189139485359 -0.99498450756073 255.0 55.0 1.0 1.0
1.8643913 1.1042413 1.6942484 -0.13536539673805237 -0.05022161453962326 -0.9895220994949341 255.0 56.0 1.0 1.0
1.8392111 1.1155801 1.6819384 -0.13430531322956085 -0.05022892728447914 -0.9896661639213562 247.0 56.0 1.0 1.0
1.7529763 1.0452223 1.7037334 0.2235308140516281 -0.06803873181343079 -0.9723192453384399 253.0 57.0 1.0 1.0
1.7471299 1.0667739 1.7088691 0.23532091081142426 -0.06052441895008087 -0.9700313806533813 255.0 57.0 1.0 1.0
1.6651983 0.99953139 1.7324971 0.23293288052082062 -0.048924315720796585 -0.9712614417076111 250.0 58.0 1.0 1.0
1.6596791 1.0200926 1.7378306 0.23310929536819458 -0.029697783291339874 -0.9719969630241394 253.0 58.0 1.0 1.0
1.5382606 0.93095076 1.7176257 -0.4263254404067993 -0.04101259633898735 -0.9036396145820618 238.0 59.0 1.0 1.0
1.5480474 0.95925266 1.7397364 -0.31948357820510864 -0.07709398120641708 -0.9444504976272583 253.0 59.0 1.0 1.0
1.4385108 0.87946701 1.7284395 -0.07940573245286942 -0.04051812365651131 -0.9960185885429382 244.0 60.0 1.0 1.0
1.4244416 0.89156824 1.7227199 -0.07497872412204742 -0.04630110412836075 -0.9961096048355103 241.0 60.0 1.0 1.0
1.3518403 0.83618337 1.7533188 0.2788003981113434 -0.05825577303767204 -0.9585806131362915 253.0 61.0 1.0 1.0
1.3406935 0.84890747 1.7503614 0.2788003981113434 -0.05825577303767204 -0.9585806131362915 253.0 61.0 1.0 1.0
1.2523911 0.78462321 1.7605343 -0.35121268033981323 -0.12277883291244507 -0.9282106757164001 255.0 62.0 1.0 1.0
1.2462238 0.79913604 1.763603 -0.38787201046943665 -0.16468746960163116 -0.9068810939788818 255.0 62.0 1.0 1.0
1.1327568 0.72095472 1.7359228 -0.21346190571784973 -0.2147517204284668 -0.9530559778213501 255.0 63.0 1.0 1.0
1.1291999 0.73550183 1.7422547 -0.4626038074493408 -0.19488318264484406 -0.8648804426193237 255.0 63.0 1.0 1.0
1.4145048 0.43341595 -1.649925 0.209120973944664 0.12083632498979568 0.9703952670097351 127.0 2.0 1.0 1.0
1.1802257 0.33277026 -1.6054364 0.13790148496627808 0.02386101894080639 0.9901584982872009 73.0 0.0 1.0 1.0
1.2604984 0.35031596 -1.5758262 0.22870400547981262 0.08115166425704956 0.9701077342033386 18.0 1.0 1.0 1.0
1.4061239 0.41482177 -1.6350672 0.11828110367059708 0.09990562498569489 0.9879415035247803 196.0 2.0 1.0 1.0
1.4103677 0.40010956 -1.6350856 0.1187494769692421 0.04609815031290054 0.9918535947799683 241.0 2.0 1.0 1.0
1.5116179 0.45387149 -1.6343404 0.18029296398162842 -0.007747444789856672 0.9835824966430664 253.0 3.0 1.0 1.0
1.516265 0.43805259 -1.63436 0.18029296398162842 -0.007747444789856672 0.9835824966430664 255.0 3.0 1.0 1.0
1.6163809 0.49230346 -1.6303085 0.14376522600650787 0.04478306695818901 0.9885980486869812 255.0 4.0 1.0 1.0
1.6352414 0.47944307 -1.6442086 0.1283007264137268 0.029047032818198204 0.9913097620010376 255.0 4.0 1.0 1.0
1.7438151 0.53768277 -1.6436425 0.16977815330028534 0.06463246047496796 0.9833605289459229 253.0 5.0 1.0 1.0
1.7550272 0.52112305 -1.6490158 0.16977815330028534 0.06463246047496796 0.9833605289459229 255.0 5.0 1.0 1.0
1.8721583 0.58361107 -1.6516331 0.11369424313306808 0.015273486264050007 0.9933983683586121 255.0 6.0 1.0 1.0
1.8869369 0.56665432 -1.6593825 0.09900509566068649 0.011840774677693844 0.9950165152549744 253.0 6.0 1.0 1.0
2.0043013 0.63047743 -1.6569153 0.10523220151662827 0.10132590681314468 0.9892720580101013 250.0 7.0 1.0 1.0
2.0288098 0.6149652 -1.6717927 0.08336499333381653 0.0794425755739212 0.9933474659919739 253.0 7.0 1.0 1.0
2.1584969 0.68428653 -1.6737199 0.0942792296409607 0.021745597943663597 0.9953082799911499 255.0 8.0 1.0 1.0
2.1685975 0.66262341 -1.6761231 0.1235077977180481 0.05128691717982292 0.9910174012184143 253.0 8.0 1.0 1.0
2.3328936 0.74532443 -1.6973599 0.103329136967659 0.06013881787657738 0.9928275346755981 255.0 9.0 1.0 1.0
2.3342612 0.71895307 -1.6928345 0.08057820051908493 0.062371838837862015 0.9947949647903442 247.0 9.0 1.0 1.0
2.506819 0.80515087 -1.71038 0.14546801149845123 0.014393220655620098 0.9892582893371582 255.0 10.0 1.0 1.0
2.5247028 0.78187335 -1.7169441 0.13014274835586548 -0.016007501631975174 0.9913660287857056 255.0 10.0 1.0 1.0
2.6821907 0.86655724 -1.7154583 0.14583998918533325 -0.009743893519043922 0.989260196685791 247.0 11.0 1.0 1.0
2.6943564 0.83947718 -1.7175696 0.1475074291229248 -0.0114478450268507 0.9889947772026062 244.0 11.0 1.0 1.0
2.8660948 0.93085647 -1.7156715 0.16988684237003326 0.03825381025671959 0.9847208857536316 226.0 12.0 1.0 1.0
2.9088361 0.9112314 -1.7354853 0.11324083805084229 0.005839119199663401 0.9935504198074341 238.0 12.0 1.0 1.0
3.0812902 1.0048261 -1.7252958 0.08379004895687103 0.030802419409155846 0.9960072040557861 220.0 13.0 1.0 1.0
3.1219351 0.98208672 -1.7422398 0.19428113102912903 0.05782449245452881 0.9792400598526001 226.0 13.0 1.0 1.0
3.3462822 1.0950382 -1.7494332 0.1333046704530716 0.07080337405204773 0.9885427355766296 211.0 14.0 1.0 1.0
3.3882868 1.0696886 -1.7654835 0.10592500120401382 0.0047740931622684 0.9943626523017883 223.0 14.0 1.0 1.0
3.6553681 1.2003392 -1.7807631 0.1455773115158081 0.041466426104307175 0.9884775280952454 211.0 15.0 1.0 1.0
3.6677115 1.1620345 -1.7808077 0.1168501153588295 0.02749801240861416 0.9927688241004944 202.0 15.0 1.0 1.0
3.3503036 1.8959043 -1.657927 0.12297739833593369 0.04595966264605522 0.9913446307182312 211.0 16.0 1.0 1.0
3.3667333 1.8589762 -1.6563666 0.1450165957212448 0.09359867125749588 0.9849920868873596 205.0 16.0 1.0 1.0
3.6394498 2.0544839 -1.6666331 0.17398028075695038 0.057853080332279205 0.9830482602119446 187.0 17.0 1.0 1.0
3.670505 2.0216753 -1.6710976 0.15627188980579376 0.011605892330408096 0.9876458644866943 175.0 17.0 1.0 1.0
3.9874723 2.244508 -1.6825533 0.1089400202035904 0.0319162979722023 0.9935358166694641 190.0 18.0 1.0 1.0
4.030478 2.2135124 -1.6908555 0.11203105747699738 0.03855303302407265 0.9929565787315369 178.0 18.0 1.0 1.0
4.1334205 2.32091 -1.6003437 0.9559799432754517 -0.2925091087818146 -0.023253904655575752 255.0 19.0 1.0 1.0
4.1973619 2.2993891 -1.6157122 0.9967687129974365 -0.07368882745504379 -0.03196965157985687 214.0 19.0 1.0 1.0
4.1042933 2.2997658 -1.4506243 0.9545270204544067 -0.27304142713546753 -0.11969386786222458 255.0 20.0 1.0 1.0
4.1817956 2.2860355 -1.4694934 0.9836868643760681 -0.13941016793251038 -0.11368781328201294 232.0 20.0 1.0 1.0
4.1078649 2.2969849 -1.3169243 0.9412881135940552 -0.3336368203163147 -0.05160556361079216 255.0 21.0 1.0 1.0
4.172256 2.2760119 -1.3298738 0.9737181663513184 -0.2003430277109146 -0.10833097994327545 253.0 21.0 1.0 1.0
4.1048617 2.29053 -1.1827518 0.9074817299842834 -0.4102781116962433 -0.09027082473039627 255.0 22.0 1.0 1.0
4.1660852 2.2678494 -1.1935045 0.950924813747406 -0.291154146194458 -0.10474357008934021 255.0 22.0 1.0 1.0
4.0875878 2.2770743 -1.0488999 0.8422442078590393 -0.5366162061691284 -0.051650822162628174 255.0 23.0 1.0 1.0
