ply
format ascii 1.0
element vertex 436
property float x
property float y
property float z
property float nx
property float ny
property float nz
property float intensity
property float ring
property float return
property float label
end_header
3.9907606 6.7964544 -0.51734847 0.9454479813575745 0.25080230832099915 -0.20790907740592957 255.0 29.0 1.0 1.0
3.941649 6.8742113 -0.3172434 0.09249235689640045 -0.18574270606040955 0.9782355427742004 42.0 30.0 1.0 1.0
4.0073524 6.8222208 -0.31671396 0.14505106210708618 -0.03137367218732834 0.9889266490936279 38.0 30.0 1.0 1.0
4.643383 7.9022117 -0.13339624 0.3486644923686981 -0.9177958369255066 0.18995754420757294 26.0 31.0 1.0 0.0
8.2643604 9.7350531 0.46841559 0.03672337904572487 -0.9966279864311218 -0.07337525486946106 10.0 33.0 1.0 1.0
10.028338 11.808948 0.96410102 -0.07542920112609863 -0.9970775842666626 0.012111938558518887 20.0 34.0 1.0 5.0
10.240427 11.8058 0.97254747 -0.07158400118350983 -0.9969940781593323 -0.02964145690202713 18.0 34.0 1.0 5.0
9.9859333 11.75902 1.3559476 0.06985738128423691 -0.9974207878112793 -0.016486063599586487 20.0 35.0 1.0 5.0
10.184288 11.741062 1.3661033 -0.0765765979886055 -0.9963865876197815 -0.03673812747001648 17.0 35.0 1.0 5.0
4.9921761 5.8740125 0.87672162 0.46038976311683655 -0.88770592212677 -0.0044125765562057495 23.0 36.0 1.0 1.0
10.169984 11.716288 1.7644154 -0.12596432864665985 -0.9854186177253723 0.11438167095184326 21.0 36.0 1.0 5.0
4.9728045 5.8470798 1.0739254 0.04119925573468208 -0.997126579284668 -0.06357000023126602 118.0 37.0 1.0 1.0
4.9740572 5.7258668 1.061178 -0.0541207529604435 -0.995389997959137 -0.0791817158460617 115.0 37.0 1.0 1.0
5.0101099 5.8847027 1.284018 0.5555336475372314 -0.8118507266044617 0.17966872453689575 28.0 38.0 1.0 1.0
5.0410419 5.9147596 1.4977069 0.3700173497200012 -0.9242830872535706 -0.09374389797449112 160.0 39.0 1.0 1.0
6.4875379 7.4525499 1.9041413 0.261157363653183 -0.7374755144119263 -0.6228375434875488 18.0 39.0 1.0 5.0
5.0339713 5.9022861 1.704651 0.07920315116643906 -0.9968565702438354 -0.0019307575421407819 178.0 40.0 1.0 2.0
5.1648455 5.9287443 1.7278266 0.07009375095367432 -0.9968884587287903 -0.03605884313583374 28.0 40.0 1.0 2.0
4.8360419 5.6621661 1.8410861 -0.03917809948325157 -0.9810206890106201 -0.1899043768644333 38.0 41.0 1.0 0.0
4.8645029 5.5760512 1.8295654 -0.04712260514497757 -0.9799994826316833 -0.1933402419090271 43.0 41.0 1.0 1.0
4.3284903 5.0606599 1.8314312 -0.12576642632484436 -0.10408499091863632 -0.9865845441818237 32.0 42.0 1.0 1.0
4.3254905 4.9511037 1.8080981 -0.11252907663583755 -0.09498226642608643 -0.9890983700752258 32.0 42.0 1.0 1.0
4.0758014 4.7567596 1.90219 -0.05967198684811592 -0.8292982578277588 -0.5556111335754395 232.0 43.0 1.0 1.0
4.0876479 4.6705627 1.8847575 -0.04821828380227089 -0.9609976410865784 -0.2723204791545868 226.0 43.0 1.0 1.0
3.5316217 4.1142683 1.8045975 -0.10658838599920273 -0.029642920941114426 -0.9938612580299377 211.0 44.0 1.0 1.0
3.5620654 4.0627432 1.7982817 -0.1247238740324974 -0.05881061032414436 -0.9904469847679138 223.0 44.0 1.0 1.0
3.2304125 3.7566454 1.7974694 -0.306193470954895 -0.045404162257909775 -0.9508859515190125 160.0 45.0 1.0 1.0
3.2497873 3.6999607 1.786557 0.13824918866157532 -0.09425169974565506 -0.9859025478363037 190.0 45.0 1.0 1.0
2.9905636 3.4702919 1.8014866 -0.13937032222747803 -0.020594565197825432 -0.9900261163711548 232.0 46.0 1.0 1.0
2.9923728 3.3996131 1.7809958 -0.18463589251041412 -0.03496561944484711 -0.9821847677230835 217.0 46.0 1.0 1.0
2.756109 3.1925118 1.7921631 -0.16541031002998352 -0.05445624887943268 -0.9847201704978943 232.0 47.0 1.0 1.0
2.7821481 3.1551437 1.7874699 -0.1365148276090622 -0.032151684165000916 -0.9901160597801208 241.0 47.0 1.0 1.0
2.0912969 3.6989028 1.9482898 -0.20710214972496033 -0.12256662547588348 -0.9706112742424011 172.0 48.0 1.0 1.0
2.1154027 3.6515789 1.9349833 0.2212795913219452 -0.01375151053071022 -0.9751134514808655 178.0 48.0 1.0 1.0
1.9330825 3.4275937 1.9381902 -0.18393103778362274 -0.06641551852226257 -0.9806927442550659 217.0 49.0 1.0 1.0
1.9635497 3.3977916 1.932915 -0.1118336096405983 -0.024833710864186287 -0.9934166073799133 217.0 49.0 1.0 1.0
1.7904294 3.1838896 1.9284083 -0.10222932696342468 -0.04300868511199951 -0.9938307404518127 223.0 50.0 1.0 1.0
1.8166741 3.1526551 1.9209645 -0.17036375403404236 -0.10972615331411362 -0.9792529940605164 220.0 50.0 1.0 1.0
1.6624852 2.9674256 1.9214315 -0.12525027990341187 -0.05337485298514366 -0.9906883835792542 226.0 51.0 1.0 1.0
1.7004697 2.9618874 1.9293213 -0.1879030466079712 -0.037492744624614716 -0.9814716577529907 238.0 51.0 1.0 1.0
1.5554515 2.7856483 1.9256893 -0.12968654930591583 -0.035302478820085526 -0.9909264445304871 244.0 52.0 1.0 1.0
1.574398 2.7513211 1.9133126 -0.11302502453327179 -0.018403278663754463 -0.993421733379364 238.0 52.0 1.0 1.0
1.4407777 2.5910487 1.9098892 -0.11999821662902832 -0.02977479249238968 -0.9923275113105774 241.0 53.0 1.0 1.0
1.4745567 2.5874584 1.9185715 -0.1745460480451584 -0.06863459944725037 -0.9822539687156677 253.0 53.0 1.0 1.0
1.3686314 2.4736645 1.9434869 0.3985230624675751 -0.10514287650585175 -0.9111115336418152 255.0 54.0 1.0 1.0
1.3896484 2.4505434 1.9367102 0.4007171094417572 -0.011658242903649807 -0.916127622127533 247.0 54.0 1.0 1.0
1.2656736 2.299099 1.9248563 0.13024099171161652 -0.446850448846817 -0.8850774168968201 250.0 55.0 1.0 1.0
1.3008419 2.3053379 1.9414284 0.09275799989700317 -0.46773356199264526 -0.8789887428283691 255.0 55.0 1.0 1.0
1.1636149 2.127043 1.8973764 -0.04727872833609581 -0.027781525626778603 -0.9984952807426453 238.0 56.0 1.0 1.0
1.1905127 2.1229372 1.9047862 -0.10451068729162216 0.026967551559209824 -0.9941580891609192 250.0 56.0 1.0 1.0
1.0895668 2.0059912 1.9073032 -0.03143978491425514 -0.9253048300743103 -0.3779188394546509 255.0 57.0 1.0 1.0
1.1001245 1.975644 1.8893731 -0.07890753448009491 -0.5457943081855774 -0.8341954350471497 247.0 57.0 1.0 1.0
1.0461657 1.9400046 1.9678594 -0.003994940314441919 -0.3101052939891815 -0.9506938457489014 247.0 58.0 1.0 1.0
1.0679346 1.9315046 1.9705383 0.13494610786437988 -0.6791459918022156 -0.7214916944503784 253.0 58.0 1.0 1.0
0.97672236 1.8274583 1.9811246 -0.11561226844787598 0.0074951425194740295 -0.9932661652565002 255.0 59.0 1.0 1.0
0.99031407 1.806934 1.9700866 -0.11561226844787598 0.0074951425194740295 -0.9932661652565002 250.0 59.0 1.0 1.0
0.89591938 1.6949781 1.9670758 -0.08746972680091858 -0.018427232280373573 -0.9959966540336609 255.0 60.0 1.0 1.0
0.90836358 1.6756307 1.955636 -0.08748453855514526 -0.0009737671934999526 -0.99616539478302 247.0 60.0 1.0 1.0
0.8232733 1.5777539 1.9646759 -0.03836919739842415 -0.07240783423185349 -0.9966368675231934 255.0 61.0 1.0 1.0
0.84235197 1.5737331 1.9706165 -0.03899144381284714 -0.02028171345591545 -0.9990336894989014 255.0 61.0 1.0 1.0
0.74864739 1.4554121 1.9514064 -0.051890190690755844 0.6699801087379456 -0.7405633330345154 255.0 62.0 1.0 1.0
0.76991427 1.4588157 1.9667374 -0.07210857421159744 0.26246678829193115 -0.9622429609298706 255.0 62.0 1.0 1.0
0.65378541 1.2939947 1.8760351 -0.06337718665599823 -0.2693309783935547 -0.9609600305557251 255.0 63.0 1.0 1.0
0.65835392 1.2696462 1.8507359 -0.13059484958648682 -0.26756227016448975 -0.9546494483947754 250.0 63.0 1.0 1.0
6.9592652 11.843719 -0.19995111 0.3486644923686981 -0.9177958369255066 0.18995754420757294 12.0 31.0 2.0 5.0
9.9926271 11.758608 1.7548189 0.46038976311683655 -0.88770592212677 -0.0044125765562057495 20.0 36.0 2.0 1.0
0.81245124 0.81529003 -1.5056938 0.12106373906135559 0.047394294291734695 0.9915125966072083 255.0 0.0 1.0 1.0
0.80559063 0.82546604 -1.5088674 0.12106373906135559 0.047394294291734695 0.9915125966072083 255.0 0.0 1.0 1.0
0.86880153 0.88377917 -1.4914837 0.1891331523656845 0.046294525265693665 0.9808595180511475 255.0 1.0 1.0 1.0
0.86661661 0.90017635 -1.5037808 0.17643633484840393 0.03317636251449585 0.9837527871131897 255.0 1.0 1.0 1.0
0.93828106 0.96485609 -1.4998097 0.15586169064044952 0.04088393971323967 0.9869324564933777 255.0 2.0 1.0 1.0
0.92446464 0.97072744 -1.493856 0.16217899322509766 0.0550231859087944 0.985226035118103 255.0 2.0 1.0 1.0
1.0041718 1.0427701 -1.4978364 0.23356527090072632 0.0362667478621006 0.971664547920227 255.0 3.0 1.0 1.0
0.99512875 1.055225 -1.5007086 0.19347254931926727 -0.005739550106227398 0.9810888767242432 255.0 3.0 1.0 1.0
1.071689 1.1218753 -1.4956921 0.1513717621564865 -0.03849705681204796 0.9877270460128784 255.0 4.0 1.0 1.0
1.054004 1.1266941 -1.4873655 0.10001282393932343 0.013680526055395603 0.9948920607566833 255.0 4.0 1.0 1.0
1.1433464 1.2053019 -1.4950778 0.12804512679576874 0.0319434329867363 0.9912537932395935 196.0 5.0 1.0 1.0
1.1286625 1.2150007 -1.492401 0.1280469447374344 0.03149779886007309 0.991267740726471 208.0 5.0 1.0 1.0
1.3760456 1.4742066 -1.489222 0.183147594332695 0.006539226043969393 0.9830636978149414 187.0 8.0 1.0 1.0
1.3518733 1.4790021 -1.4797196 0.11803402751684189 -0.023925665766000748 0.9927212595939636 166.0 8.0 1.0 1.0
1.4633499 1.5749136 -1.4885631 0.09831219911575317 0.01393195241689682 0.9950581192970276 255.0 9.0 1.0 1.0
1.4490147 1.5925573 -1.4908365 0.09267587959766388 0.031521815806627274 0.9951972365379333 250.0 9.0 1.0 1.0
1.5360912 1.6584355 -1.4670416 0.15876562893390656 0.02386198565363884 0.9870278835296631 250.0 10.0 1.0 1.0
1.5321879 1.6893218 -1.4800975 0.15386734902858734 0.01884288527071476 0.9879118800163269 255.0 10.0 1.0 1.0
1.652141 1.790025 -1.4810175 0.11783348768949509 0.04402322694659233 0.9920570850372314 255.0 11.0 1.0 1.0
1.6287462 1.8021268 -1.4768608 0.14393123984336853 0.08004369586706161 0.9863451719284058 255.0 11.0 1.0 1.0
1.7531623 1.9055032 -1.4726483 0.16730636358261108 0.06761681288480759 0.9835835695266724 255.0 12.0 1.0 1.0
1.7215002 1.9108092 -1.462763 0.13998281955718994 0.0762852355837822 0.9872108697891235 253.0 12.0 1.0 1.0
1.8714927 2.0391462 -1.4717954 0.14903925359249115 0.044774189591407776 0.9878170490264893 255.0 13.0 1.0 1.0
1.8382576 2.0454669 -1.4624071 0.1466505080461502 0.04791979119181633 0.9880269765853882 255.0 13.0 1.0 1.0
1.9738957 2.1552756 -1.4505336 0.1424025595188141 0.08277665823698044 0.9863414764404297 232.0 14.0 1.0 1.0
1.967984 2.194478 -1.462973 0.15084895491600037 0.048062264919281006 0.9873877763748169 255.0 14.0 1.0 1.0
2.1130278 2.3120887 -1.4480594 0.15741461515426636 0.05246271938085556 0.9861380457878113 229.0 15.0 1.0 1.0
2.0935647 2.3394747 -1.4514122 0.1802968978881836 0.08135911077260971 0.980241596698761 241.0 15.0 1.0 1.0
1.6293536 2.7015288 -1.3578014 0.15031622350215912 0.0675874799489975 0.9863250851631165 247.0 16.0 1.0 1.0
1.5879441 2.6962535 -1.3467562 0.14386306703090668 0.04485592991113663 0.9885805249214172 244.0 16.0 1.0 1.0
1.7505783 2.8958228 -1.3484412 0.2270117700099945 0.0407462976872921 0.9730392694473267 250.0 17.0 1.0 1.0
1.7050675 2.8883688 -1.3366207 0.2174025923013687 0.10075133293867111 0.9708683490753174 235.0 17.0 1.0 1.0
1.8813173 3.1036863 -1.3335333 0.10628782212734222 0.06896558403968811 0.9919408559799194 232.0 18.0 1.0 1.0
1.8410832 3.1102674 -1.3280388 0.15035392343997955 0.07084813714027405 0.9860904216766357 232.0 18.0 1.0 1.0
2.0243785 3.3319933 -1.3150836 0.15804874897003174 0.05095683038234711 0.986115574836731 214.0 19.0 1.0 1.0
1.9739238 3.3269062 -1.3048829 0.13957948982715607 0.06063653156161308 0.9883524775505066 214.0 19.0 1.0 1.0
2.1877341 3.5939703 -1.2960446 0.15535639226436615 0.09074625372886658 0.9836816787719727 199.0 20.0 1.0 1.0
2.1363249 3.5936561 -1.2878295 0.13254059851169586 0.05118122324347496 0.989855170249939 196.0 20.0 1.0 1.0
2.388284 3.9159217 -1.2819899 0.14070160686969757 0.03393835946917534 0.9894701838493347 181.0 21.0 1.0 1.0
2.3333664 3.9175241 -1.2744823 0.10612907260656357 0.055919695645570755 0.9927787780761719 190.0 21.0 1.0 1.0
2.6106741 4.2723703 -1.2581621 0.12314102053642273 0.02562161162495613 0.9920583367347717 154.0 22.0 1.0 1.0
2.5419552 4.2594738 -1.2464969 0.1419478803873062 0.04134140908718109 0.9890105128288269 154.0 22.0 1.0 1.0
2.8783293 4.7032185 -1.2342345 0.13894903659820557 0.09790574014186859 0.9854479432106018 109.0 23.0 1.0 1.0
2.8069105 4.6962223 -1.2246583 0.16841571033000946 0.040405914187431335 0.9848875403404236 112.0 23.0 1.0 1.0
3.1937182 5.2126651 -1.2031323 0.18362775444984436 0.07381359487771988 0.9802205562591553 52.0 24.0 1.0 1.0
3.108747 5.1952829 -1.1915845 0.2009870707988739 0.041764914989471436 0.9787032008171082 37.0 24.0 1.0 1.0
3.5899243 5.8504229 -1.166783 0.15781311690807343 0.06365739554166794 0.985414981842041 46.0 25.0 1.0 1.0
3.496047 5.8335528 -1.1560998 0.1308833658695221 0.06999072432518005 0.9889240860939026 45.0 25.0 1.0 1.0
4.1629 6.7765293 -1.141023 0.10547114908695221 0.015435597859323025 0.9943025708198547 193.0 26.0 1.0 1.0
4.0733919 6.7891731 -1.1359566 0.13609427213668823 0.033589061349630356 0.9901263117790222 214.0 26.0 1.0 1.0
4.2061415 6.8417783 -0.94320387 0.9931685328483582 0.025218140333890915 -0.11393137276172638 250.0 27.0 1.0 1.0
4.1036015 6.8343434 -0.93625253 0.9882474541664124 -0.014254814013838768 -0.15219643712043762 244.0 27.0 1.0 1.0
4.2021484 6.8274741 -0.73326266 0.9973666071891785 -0.010867047123610973 -0.07170581072568893 255.0 28.0 1.0 1.0
4.0893836 6.8028111 -0.72602314 0.9907171130180359 -0.03081301972270012 -0.13240207731723785 247.0 28.0 1.0 1.0
4.1761527 6.782784 -0.52286494 0.9969171285629272 -0.012335789389908314 -0.07748483121395111 241.0 29.0 1.0 1.0
4.078156 6.7816696 -0.51950461 0.9919027090072632 0.008040601387619972 -0.12674574553966522 247.0 29.0 1.0 1.0
4.2667203 6.9273906 -0.32568535 0.6683053970336914 -0.07248220592737198 0.7403472661972046 27.0 30.0 1.0 1.0
4.0868092 6.793592 -0.31741485 0.45577168464660645 -0.20651152729988098 0.8658089637756348 32.0 30.0 1.0 1.0
4.7733078 7.9319825 -0.13480529 0.7172384262084961 -0.6895711421966553 0.10030242055654526 160.0 31.0 1.0 1.0
4.7678165 5.2745924 0.079464607 -0.13903246819972992 -0.9666704535484314 0.21498432755470276 100.0 32.0 1.0 0.0
8.9798527 10.146731 0.15154365 -0.04013380408287048 -0.9893224835395813 0.1401084065437317 18.0 32.0 1.0 5.0
10.69977 11.825565 0.99218678 -0.01802116073668003 -0.9998288154602051 0.004195440094918013 15.0 34.0 1.0 5.0
10.453534 11.799525 0.98077214 -0.004738202318549156 -0.9986653923988342 0.05142972990870476 15.0 34.0 1.0 5.0
10.647248 11.767458 1.3945863 -0.025300057604908943 -0.9996799230575562 0.00027409387985244393 17.0 35.0 1.0 5.0
10.462615 11.809745 1.3865439 0.15877212584018707 -0.9775236248970032 -0.13870525360107422 18.0 35.0 1.0 5.0
10.549281 11.650942 1.787233 0.04993078112602234 -0.9958377480506897 0.07624951004981995 14.0 36.0 1.0 5.0
10.363358 11.689443 1.7763983 -0.05342764034867287 -0.9800844192504883 0.19125935435295105 14.0 36.0 1.0 5.0
4.9865751 5.5029793 1.0388994 -0.011617100797593594 -0.9994996190071106 -0.02941807359457016 151.0 37.0 1.0 1.0
4.98384 5.6171565 1.0505422 -0.02076594904065132 -0.9971221089363098 -0.07291261106729507 154.0 37.0 1.0 1.0
6.4786282 7.1346951 1.8570719 0.26812654733657837 -0.9415408968925476 0.20398281514644623 19.0 39.0 1.0 5.0
6.4687376 7.2755809 1.8759996 -0.3597930073738098 -0.8464661240577698 0.3924844563007355 19.0 39.0 1.0 5.0
4.8967209 5.3809829 1.7987375 -0.03888421505689621 -0.9830649495124817 -0.17908483743667603 43.0 41.0 1.0 0.0
4.8193774 5.4088159 1.7910641 -0.045059721916913986 -0.9827413558959961 -0.179412841796875 36.0 41.0 1.0 0.0
4.3738136 4.7995005 1.7857291 -0.10862325131893158 -0.038317129015922546 -0.9933443069458008 121.0 42.0 1.0 1.0
4.3463607 4.8709869 1.7952789 -0.19808429479599 -0.11832422018051147 -0.9730169773101807 118.0 42.0 1.0 1.0
4.1201954 4.513195 1.8556136 -0.03209790214896202 -0.9500933885574341 -0.31030991673469543 238.0 43.0 1.0 1.0
4.090498 4.576117 1.863753 -0.03496439382433891 -0.9585041999816895 -0.28292590379714966 223.0 43.0 1.0 1.0
3.6593075 4.0011964 1.8045142 0.3460887670516968 -0.12019386142492294 -0.930470883846283 226.0 44.0 1.0 1.0
3.6272709 4.0506535 1.8095707 -0.2647879421710968 -0.1466071456670761 -0.9530969262123108 241.0 44.0 1.0 1.0
3.286057 3.5866621 1.764661 -0.3953671455383301 -0.07929050922393799 -0.9150944352149963 211.0 45.0 1.0 1.0
3.2532771 3.6265199 1.7673932 0.19127796590328217 -0.09515424072742462 -0.9769126772880554 190.0 45.0 1.0 1.0
3.0479426 3.3196824 1.7721457 -0.11132895946502686 -0.037344448268413544 -0.99308180809021 241.0 46.0 1.0 1.0
3.0353465 3.3763816 1.7853215 -0.1444709450006485 -0.04453146085143089 -0.9885064959526062 247.0 46.0 1.0 1.0
2.8078778 3.0527623 1.7623831 -0.17531172931194305 -0.04008471593260765 -0.9836965799331665 232.0 47.0 1.0 1.0
2.8003283 3.1094041 1.7780262 -0.13112178444862366 -0.044956449419260025 -0.990346372127533 238.0 47.0 1.0 1.0
2.1802258 3.5877614 1.9249758 0.09700553119182587 -0.04111764207482338 -0.994434118270874 208.0 48.0 1.0 1.0
2.1554585 3.6323345 1.9366186 0.09667376428842545 -0.0922381654381752 -0.9910330176353455 214.0 48.0 1.0 1.0
2.0195391 3.3313041 1.9187733 -0.13153894245624542 -0.05227217078208923 -0.9899318814277649 226.0 49.0 1.0 1.0
1.9881339 3.3584948 1.9222844 -0.13270756602287292 -0.00785115547478199 -0.991124153137207 217.0 49.0 1.0 1.0
1.8696332 3.0926559 1.9078904 -0.13107599318027496 -0.07557454705238342 -0.9884876012802124 229.0 50.0 1.0 1.0
1.8496661 3.1334393 1.9209377 -0.1918991655111313 -0.137336865067482 -0.9717577695846558 241.0 50.0 1.0 1.0
1.7407062 2.8897512 1.9057149 -0.1158222183585167 -0.0742969810962677 -0.9904873967170715 235.0 51.0 1.0 1.0
1.7102846 2.9078693 1.9056948 -0.11391995847225189 0.05275512859225273 -0.992088258266449 223.0 51.0 1.0 1.0
1.624764 2.7059305 1.9050431 -0.08679509907960892 -0.08297301828861237 -0.9927648305892944 250.0 52.0 1.0 1.0
1.6032012 2.734664 1.9132895 -0.10283324122428894 -0.020011819899082184 -0.9944972991943359 247.0 52.0 1.0 1.0
1.513032 2.5299618 1.899078 -0.25704842805862427 -0.08960505574941635 -0.9622353911399841 247.0 53.0 1.0 1.0
1.4846952 2.5428107 1.8968946 -0.1723417043685913 -0.0875682681798935 -0.9811371564865112 238.0 53.0 1.0 1.0
1.4222654 2.3896682 1.9117892 0.1223592609167099 -0.0808638334274292 -0.9891861081123352 229.0 54.0 1.0 1.0
1.4020655 2.4130313 1.918568 0.12275149673223495 -0.012628305703401566 -0.992357075214386 235.0 54.0 1.0 1.0
1.3111748 2.2136729 1.8870343 0.31476736068725586 -0.10422749817371368 -0.9434289336204529 235.0 55.0 1.0 1.0
1.3072313 2.2608457 1.9153966 0.3116587698459625 -0.10973173379898071 -0.9438368082046509 253.0 55.0 1.0 1.0
1.2156764 2.0648856 1.875213 -0.10300549119710922 -0.06833700090646744 -0.9923305511474609 238.0 56.0 1.0 1.0
1.2033396 2.0939419 1.8899838 -0.11013109236955643 -0.07392656058073044 -0.991163969039917 247.0 56.0 1.0 1.0
1.1398516 1.9494509 1.8868084 -0.0996139720082283 0.06856892257928848 -0.9926607012748718 244.0 57.0 1.0 1.0
1.1223531 1.9666618 1.8919214 -0.08367922902107239 -0.5455812811851501 -0.8338698148727417 250.0 57.0 1.0 1.0
1.0783298 1.8570187 1.9172766 -0.06254773586988449 -0.947594404220581 -0.31329330801963806 255.0 58.0 1.0 1.0
1.0734714 1.8942257 1.9438931 0.03892723470926285 -0.7991820573806763 -0.599827229976654 253.0 58.0 1.0 1.0
1.0266441 1.7832189 1.9673235 -0.1296202689409256 -0.04761059954762459 -0.9904200434684753 244.0 59.0 1.0 1.0
1.0149285 1.8065296 1.9811262 -0.12976379692554474 0.007481940556317568 -0.991516649723053 255.0 59.0 1.0 1.0
0.95307821 1.6731565 1.9756813 -0.0804818794131279 -0.007746994029730558 -0.9967259168624878 255.0 60.0 1.0 1.0
0.93408108 1.6806538 1.9728048 -0.139928936958313 -0.000967897882219404 -0.9901610612869263 255.0 60.0 1.0 1.0
0.86605448 1.5392832 1.9498732 -0.07886964827775955 -0.09090512245893478 -0.992731511592865 255.0 61.0 1.0 1.0
0.85757536 1.562449 1.9676419 -0.08286923915147781 -0.020227333530783653 -0.9963550567626953 255.0 61.0 1.0 1.0
0.79295915 1.4288056 1.9483575 -0.09519467502832413 0.004153345245867968 -0.9954500198364258 255.0 62.0 1.0 1.0
0.78278267 1.4461277 1.9606004 -0.07210857421159744 0.26246678829193115 -0.9622429609298706 255.0 62.0 1.0 1.0
0.67556649 1.2383215 1.8254274 -0.05859215185046196 0.4206165075302124 -0.9053446054458618 220.0 63.0 1.0 1.0
0.6682443 1.256179 1.8412362 -0.034900687634944916 -0.17604532837867737 -0.9837632179260254 238.0 63.0 1.0 1.0
0.82928711 0.79814368 -1.5057158 0.18217076361179352 0.028676042333245277 0.9828486442565918 255.0 0.0 1.0 1.0
0.81744188 0.80334586 -1.4993596 0.12094144523143768 0.06527649611234665 0.9905110001564026 255.0 0.0 1.0 1.0
0.90536147 0.88331163 -1.522257 0.11070799827575684 0.012249552644789219 0.9937775135040283 255.0 1.0 1.0 1.0
0.89608663 0.89271557 -1.5222534 0.11811033636331558 0.046815432608127594 0.9918962717056274 255.0 1.0 1.0 1.0
0.9658311 0.95255369 -1.511737 0.15701021254062653 0.042059414088726044 0.9867010116577148 255.0 2.0 1.0 1.0
0.94641429 0.95309865 -1.4968553 0.15586169064044952 0.04088393971323967 0.9869324564933777 255.0 2.0 1.0 1.0
1.0316392 1.0274496 -1.5064868 0.22130699455738068 0.08534431457519531 0.971462607383728 255.0 3.0 1.0 1.0
1.0188985 1.0361844 -1.5036083 0.23353897035121918 0.03924746438860893 0.9715551137924194 255.0 3.0 1.0 1.0
1.0948888 1.0992328 -1.4957198 0.10937733203172684 -0.013818048872053623 0.9939042329788208 255.0 4.0 1.0 1.0
1.0813309 1.108547 -1.4929413 0.1513717621564865 -0.03849705681204796 0.9877270460128784 255.0 4.0 1.0 1.0
1.1682775 1.1811403 -1.4951072 0.11605377495288849 0.05531225726008415 0.991701602935791 151.0 5.0 1.0 1.0
1.1579375 1.1954191 -1.4977778 0.1482088267803192 0.05246496945619583 0.98756343126297 184.0 5.0 1.0 1.0
1.4110456 1.4497274 -1.4940065 0.14761163294315338 0.044150982052087784 0.9880594611167908 211.0 8.0 1.0 1.0
1.384711 1.4527439 -1.4821275 0.1477135270833969 -0.02389651909470558 0.9887415170669556 202.0 8.0 1.0 1.0
1.4959513 1.5439699 -1.4885995 0.12378931045532227 0.059826646000146866 0.9905033707618713 253.0 9.0 1.0 1.0
1.4774616 1.5571361 -1.4863195 0.12393691390752792 0.03466155380010605 0.9916844964027405 255.0 9.0 1.0 1.0
1.5960661 1.6525096 -1.491021 0.1537400484085083 0.0408947616815567 0.9872646927833557 255.0 10.0 1.0 1.0
1.564865 1.6544722 -1.477958 0.1537400484085083 0.0408947616815567 0.9872646927833557 255.0 10.0 1.0 1.0
1.6892058 1.7550801 -1.4810582 0.10685645043849945 0.004572125617414713 0.9942639470100403 253.0 11.0 1.0 1.0
1.670758 1.7726455 -1.4810539 0.11791491508483887 0.02362743206322193 0.992742657661438 255.0 11.0 1.0 1.0
1.8046585 1.8809668 -1.4825745 0.13457943499088287 0.04405231028795242 0.9899231195449829 255.0 12.0 1.0 1.0
1.7777445 1.8921295 -1.4766401 0.14710333943367004 0.06570574641227722 0.9869362711906433 255.0 12.0 1.0 1.0
1.9234936 2.0097625 -1.4793501 0.11213918030261993 0.02925224043428898 0.9932618737220764 253.0 13.0 1.0 1.0
1.8951212 2.0220344 -1.473714 0.14745168387889862 0.04315385967493057 0.9881274104118347 253.0 13.0 1.0 1.0
2.0507076 2.1472063 -1.4736897 0.14780892431735992 0.05099163204431534 0.9877005219459534 253.0 14.0 1.0 1.0
2.0158978 2.1554477 -1.4647973 0.11533107608556747 0.017978210002183914 0.9931644201278687 250.0 14.0 1.0 1.0
2.1884768 2.2962961 -1.4665673 0.15535807609558105 0.06881153583526611 0.9854586720466614 235.0 15.0 1.0 1.0
2.1618567 2.3164051 -1.4648844 0.13818490505218506 0.032836686819791794 0.9898619651794434 238.0 15.0 1.0 1.0
1.6914072 2.6761758 -1.3625523 0.10484960675239563 0.01884341798722744 0.9943095445632935 244.0 16.0 1.0 1.0
1.6536595 2.6780832 -1.3546658 0.13281607627868652 0.03795841708779335 0.9904135465621948 241.0 16.0 1.0 1.0
1.8167509 2.8679876 -1.3528916 0.2705696225166321 -0.04394835978746414 0.9616966843605042 232.0 17.0 1.0 1.0
1.7846835 2.8836703 -1.351429 0.26051589846611023 0.05613502487540245 0.9638361930847168 241.0 17.0 1.0 1.0
1.9599397 3.0858374 -1.343197 0.12854953110218048 -0.0021811469923704863 0.9917007088661194 223.0 18.0 1.0 1.0
1.913681 3.0838337 -1.3335631 0.11756499856710434 -0.01621035300195217 0.9929328560829163 217.0 18.0 1.0 1.0
2.1140137 3.3208859 -1.327875 0.1879051774740219 0.06614647060632706 0.9799572825431824 220.0 19.0 1.0 1.0
2.067132 3.3235052 -1.3202275 0.16977863013744354 0.032553207129240036 0.9849444031715393 214.0 19.0 1.0 1.0
2.2912445 3.5925343 -1.3125368 0.08866013586521149 0.05522104352712631 0.9945300221443176 190.0 20.0 1.0 1.0
2.2413883 3.5968392 -1.305496 0.1443617343902588 0.028634756803512573 0.9891105890274048 196.0 20.0 1.0 1.0
2.5008295 3.9137859 -1.2981497 0.12034474313259125 0.03507271036505699 0.9921123385429382 190.0 21.0 1.0 1.0
2.4495268 3.9233959 -1.2927914 0.13973653316497803 0.056275516748428345 0.988588273525238 193.0 21.0 1.0 1.0
2.7371709 4.2756147 -1.2757196 0.13110265135765076 0.04006882384419441 0.9905586242675781 151.0 22.0 1.0 1.0
2.6778662 4.2809963 -1.2689234 0.14843350648880005 0.04827680066227913 0.9877433180809021 139.0 22.0 1.0 1.0
3.0140646 4.7011008 -1.2499747 0.1504029780626297 0.029350224882364273 0.9881890416145325 97.0 23.0 1.0 1.0
2.9501829 4.7092266 -1.2438884 0.16200567781925201 0.042121827602386475 0.9858905076980591 127.0 23.0 1.0 1.0
3.35725 5.2305574 -1.2232296 0.1651603728532791 0.04020565748214722 0.9854468703269958 43.0 24.0 1.0 1.0
3.2877138 5.2421303 -1.2178551 0.11801832169294357 0.11109938472509384 0.9867768287658691 43.0 24.0 1.0 1.0
3.8075607 5.9232783 -1.1969626 0.14119763672351837 0.0715595930814743 0.9873917698860168 38.0 25.0 1.0 1.0
3.7138805 5.9127116 -1.1869452 0.16927213966846466 0.11467529088258743 0.9788751602172852 43.0 25.0 1.0 1.0
4.3681335 6.7877936 -1.1580886 0.20918133854866028 -0.01825783960521221 0.9777064323425293 214.0 26.0 1.0 1.0
4.2778606 6.8029757 -1.1530168 0.20648743212223053 0.02863168716430664 0.978030264377594 220.0 26.0 1.0 1.0
4.3850307 6.8090057 -0.95116186 0.9722195267677307 -0.16413432359695435 -0.16688086092472076 193.0 27.0 1.0 1.0
4.3092666 6.8478112 -0.95026857 0.9900895357131958 0.010716940276324749 -0.1400281935930252 244.0 27.0 1.0 1.0
4.389513 6.8083072 -0.74094021 0.9741561412811279 -0.1320730298757553 -0.1832391619682312 229.0 28.0 1.0 1.0
4.2988729 6.8235564 -0.73770154 0.992096483707428 0.0065046981908380985 -0.12530840933322906 244.0 28.0 1.0 1.0
4.3886609 6.8045506 -0.53153688 0.9965237379074097 -0.010216370224952698 -0.08268125355243683 253.0 29.0 1.0 1.0
4.2916279 6.809607 -0.52843314 0.9956116676330566 -0.038620512932538986 -0.08524038642644882 255.0 29.0 1.0 1.0
5.0348735 7.8037887 -0.37177098 -0.2957063913345337 -0.8912773132324219 -0.3437768220901489 12.0 30.0 1.0 6.0
4.3965716 6.9736285 -0.33007282 0.18755701184272766 -0.13947521150112152 0.9723008871078491 13.0 30.0 1.0 1.0
7.6595044 11.867894 -0.20557991 -0.03607378527522087 -0.9980137348175049 0.05164482071995735 17.0 31.0 1.0 5.0
7.4601264 11.829046 -0.20361185 -0.2385505884885788 -0.9435640573501587 -0.2297399640083313 14.0 31.0 1.0 5.0
4.8388543 5.1328373 0.078723729 -0.2304879128932953 -0.9709440469741821 -0.06436606496572495 202.0 32.0 1.0 1.0
4.8228011 5.2243819 0.079359636 -0.2230394333600998 -0.9719958305358887 0.0740092545747757 166.0 32.0 1.0 0.0
4.843205 5.1338186 0.25863606 0.3797590732574463 -0.9220749735832214 -0.07457008957862854 235.0 33.0 1.0 1.0
4.8406887 5.2400584 0.26143026 0.5781990885734558 -0.8139618039131165 -0.05614248663187027 211.0 33.0 1.0 0.0
4.8983011 5.1903744 0.44387764 -0.34242376685142517 -0.9255836009979248 -0.16137179732322693 133.0 34.0 1.0 2.0
4.7894673 5.182754 0.43892127 0.008379909209907055 -0.99993896484375 -0.0071997870691120625 21.0 34.0 1.0 0.0
4.9053607 5.197814 0.62795687 -0.07836385071277618 -0.9967597126960754 -0.018144292756915092 29.0 35.0 1.0 0.0
10.815907 11.705072 1.4003031 0.037040308117866516 -0.9955665469169617 0.08645903319120407 20.0 35.0 1.0 5.0
4.9838209 5.2734957 1.0149531 0.03193863108754158 -0.9970986843109131 -0.06909537315368652 148.0 37.0 1.0 1.0
4.9901628 5.3923011 1.0277078 -0.008295207284390926 -0.9997869729995728 -0.01890258491039276 151.0 37.0 1.0 1.0
4.8884625 5.1671081 1.181536 -0.6044799089431763 -0.5725682973861694 -0.553867757320404 26.0 38.0 1.0 2.0
4.9334722 5.2091761 1.3824384 -0.12252708524465561 -0.9899168610572815 -0.07107585668563843 30.0 39.0 1.0 2.0
6.4782796 6.9858055 1.8357399 0.17455774545669556 -0.9641246795654297 0.19998294115066528 18.0 39.0 1.0 5.0
4.9815683 5.2562423 1.5911149 0.016456199809908867 -0.9860680103302002 -0.16552717983722687 30.0 40.0 1.0 0.0
4.9261956 5.3081613 1.5911258 -0.07310736924409866 -0.9854310750961304 -0.15356074273586273 10.0 40.0 1.0 0.0
4.9256096 5.1898727 1.768863 -0.0373368002474308 -0.9835343956947327 -0.1768224984407425 43.0 41.0 1.0 0.0
4.9026494 5.2753491 1.7803921 -0.043583087623119354 -0.9833292961120605 -0.1765332669019699 43.0 41.0 1.0 0.0
4.4017658 4.6313009 1.7569909 -0.06247692555189133 -0.08423122018575668 -0.99448561668396 33.0 42.0 1.0 1.0
4.3923759 4.7195392 1.7729073 -0.03704442083835602 -0.0662556067109108 -0.9971147775650024 25.0 42.0 1.0 1.0
4.1215801 4.3288245 1.8148444 -0.008561763912439346 -0.8293442726135254 -0.558672308921814 232.0 43.0 1.0 1.0
4.1020589 4.3997917 1.8264734 -0.055112533271312714 -0.9763938784599304 -0.20884813368320465 223.0 43.0 1.0 1.0
3.648139 3.8247395 1.7589633 -0.05293324962258339 -0.07444369047880173 -0.9958193898200989 94.0 44.0 1.0 1.0
3.6881273 3.9487724 1.7981192 0.35343146324157715 -0.23471741378307343 -0.9055352210998535 196.0 44.0 1.0 1.0
3.3372049 3.4925244 1.7523065 -0.13250255584716797 -0.0660921186208725 -0.9889767169952393 226.0 45.0 1.0 1.0
3.3029563 3.5300698 1.7536781 -0.15507790446281433 -0.0957627147436142 -0.983249843120575 208.0 45.0 1.0 1.0
3.1143556 3.2523715 1.7706072 -0.17502522468566895 0.004377805162221193 -0.9845542907714844 244.0 46.0 1.0 1.0
3.0647893 3.2685556 1.7618343 -0.17996729910373688 -0.04225747287273407 -0.9827645421028137 232.0 46.0 1.0 1.0
2.8585863 2.9799409 1.7544945 -0.11820681393146515 -0.04676482453942299 -0.9918872714042664 241.0 47.0 1.0 1.0
2.8372438 3.0204916 1.7607571 -0.16404224932193756 -0.12625423073768616 -0.9783405065536499 235.0 47.0 1.0 1.0
2.2354977 3.5105736 1.9082949 -0.15898489952087402 -0.07682012021541595 -0.9842877388000488 208.0 48.0 1.0 1.0
2.2139127 3.5585396 1.9216076 -0.14668908715248108 -0.006573887541890144 -0.9891607761383057 214.0 48.0 1.0 1.0
2.0659151 3.2518606 1.897558 -0.16336913406848907 -0.008308698423206806 -0.986530065536499 217.0 49.0 1.0 1.0
2.0468221 3.2977574 1.9116737 -0.19003184139728546 -0.029783945530653 -0.9813260436058044 223.0 49.0 1.0 1.0
1.9265609 3.0408006 1.9004118 -0.1559215635061264 -0.0820411965250969 -0.9843565225601196 235.0 50.0 1.0 1.0
1.8982706 3.0668728 1.9041271 -0.10825777798891068 0.010410427115857601 -0.9940683841705322 235.0 50.0 1.0 1.0
1.7954075 2.8437581 1.8998046 -0.1557350605726242 -0.027543937787413597 -0.9874147772789001 238.0 51.0 1.0 1.0
1.7654647 2.8624508 1.8997872 -0.15706594288349152 -0.0846470519900322 -0.9839537739753723 232.0 51.0 1.0 1.0
1.6702745 2.6538486 1.8926363 -0.18016232550144196 -0.12044340372085571 -0.9762351512908936 247.0 52.0 1.0 1.0
1.6459146 2.6770773 1.8967526 -0.18418289721012115 -0.06321658939123154 -0.9808568954467773 244.0 52.0 1.0 1.0
1.5729704 2.5090499 1.9077324 0.07690299302339554 -0.07966767996549606 -0.993850588798523 255.0 53.0 1.0 1.0
1.5395203 2.5139594 1.8990545 0.10165565460920334 -0.04878920316696167 -0.9936224818229675 241.0 53.0 1.0 1.0
1.4564379 2.3341148 1.8913946 -0.28172633051872253 -0.028145428746938705 -0.9590818285942078 223.0 54.0 1.0 1.0
1.4387127 2.3605473 1.9004409 -0.49372419714927673 -0.03180956467986107 -0.8690366148948669 226.0 54.0 1.0 1.0
1.3488806 2.1719556 1.8752041 -0.5813257098197937 0.028436757624149323 -0.8131740093231201 247.0 55.0 1.0 1.0
1.3243251 2.1832507 1.8728253 0.31698232889175415 0.030996324494481087 -0.9479248523712158 229.0 55.0 1.0 1.0
1.2687241 2.0549917 1.8899938 -0.09327279776334763 -0.01933678425848484 -0.9954527616500854 253.0 56.0 1.0 1.0
1.248697 2.0709109 1.8924446 -0.10319660604000092 -0.031192956492304802 -0.9941717386245728 255.0 56.0 1.0 1.0
1.1757559 1.9172299 1.8791127 -0.11134501546621323 0.023994576185941696 -0.9934921264648438 255.0 57.0 1.0 1.0
1.161859 1.940022 1.8893551 -0.17171114683151245 -0.004803191404789686 -0.9851357340812683 255.0 57.0 1.0 1.0
1.0907387 1.7906219 1.8720012 -0.05959858372807503 -0.6920856833457947 -0.7193506360054016 244.0 58.0 1.0 1.0
1.0810164 1.8173852 1.8879672 -0.07657427340745926 -0.9960858821868896 -0.04415154457092285 250.0 58.0 1.0 1.0
1.0609213 1.7563035 1.9617941 -0.08688761293888092 -0.4741513431072235 -0.8761455416679382 255.0 59.0 1.0 1.0
1.0424047 1.7673664 1.961782 -0.13724945485591888 -0.055358320474624634 -0.9889883995056152 255.0 59.0 1.0 1.0
0.97372967 1.628783 1.9470444 -0.16872099041938782 -0.020482676103711128 -0.9854509830474854 253.0 60.0 1.0 1.0
0.95936882 1.643764 1.9527599 -0.11989212036132812 -0.04752780497074127 -0.9916486740112305 250.0 60.0 1.0 1.0
0.89688182 1.5184231 1.9469085 -0.15429764986038208 -0.12088312208652496 -0.9806016087532043 253.0 61.0 1.0 1.0
0.87818247 1.5231256 1.9409705 -0.1096506118774414 -0.12161057442426682 -0.9865027070045471 250.0 61.0 1.0 1.0
0.82544422 1.416258 1.9544843 -0.2136015146970749 -0.11680212616920471 -0.9699131846427917 255.0 62.0 1.0 1.0
0.80668789 1.4181665 1.9452829 -0.09519467502832413 0.004153345245867968 -0.9954500198364258 255.0 62.0 1.0 1.0
0.74407673 1.2981589 1.9361632 0.0744568482041359 -0.7861006259918213 0.613597571849823 255.0 63.0 1.0 1.0
0.70171195 1.254658 1.8602208 -0.05859215185046196 0.4206165075302124 -0.9053446054458618 223.0 63.0 1.0 1.0
10.8095 11.698233 0.99059939 0.008379909209907055 -0.99993896484375 -0.0071997870691120625 20.0 34.0 2.0 5.0
5.3088589 5.7205753 1.7146647 -0.07310736924409866 -0.9854310750961304 -0.15356074273586273 7.0 40.0 2.0 5.0
0.8511169 0.78559828 -1.5152687 0.16946588456630707 0.015570692718029022 0.9854130744934082 255.0 0.0 1.0 1.0
0.84640425 0.79777706 -1.5216172 0.18217076361179352 0.028676042333245277 0.9828486442565918 255.0 0.0 1.0 1.0
0.92173374 0.86245614 -1.5192074 0.11941249668598175 0.021068615838885307 0.992621123790741 255.0 1.0 1.0 1.0
0.90897882 0.8684966 -1.5130527 0.11070799827575684 0.012249552644789219 0.9937775135040283 255.0 1.0 1.0 1.0
0.98744863 0.93400311 -1.5147394 0.16979558765888214 0.02984628453850746 0.9850272536277771 255.0 2.0 1.0 1.0
0.9680292 0.93497419 -1.4998566 0.15701021254062653 0.042059414088726044 0.9867010116577148 255.0 2.0 1.0 1.0
1.0488495 1.0018226 -1.5007656 0.16098016500473022 0.014928620308637619 0.9868447184562683 255.0 3.0 1.0 1.0
1.0423054 1.016609 -1.5065105 0.2273179143667221 0.04710114002227783 0.9726808667182922 255.0 3.0 1.0 1.0
1.1217586 1.0801073 -1.5012991 0.16254322230815887 -0.013716583140194416 0.9866060614585876 255.0 4.0 1.0 1.0
1.1124641 1.0937879 -1.5040692 0.16254322230815887 -0.013716583140194416 0.9866060614585876 255.0 4.0 1.0 1.0
1.2033706 1.166819 -1.5085109 0.1275806427001953 0.03191879764199257 0.9913144111633301 79.0 5.0 1.0 1.0
1.193223 1.1814222 -1.5111804 0.1162075623869896 0.02038152888417244 0.9930157661437988 142.0 5.0 1.0 1.0
1.4479125 1.4266853 -1.5011692 0.15969477593898773 -0.005183711647987366 0.9871528148651123 217.0 8.0 1.0 1.0
1.4283807 1.4371744 -1.4964137 0.19687774777412415 0.07014132291078568 0.9779158234596252 214.0 8.0 1.0 1.0
1.5395833 1.5239233 -1.5000191 0.18184198439121246 0.04241812601685524 0.9824123382568359 255.0 9.0 1.0 1.0
1.5143137 1.5305784 -1.4909095 0.10663844645023346 0.042489465326070786 0.9933895468711853 253.0 9.0 1.0 1.0
1.6374058 1.6258652 -1.4975927 0.14161130785942078 0.025902746245265007 0.9895833730697632 255.0 10.0 1.0 1.0
1.6203141 1.642895 -1.4975868 0.13812938332557678 0.02235318347811699 0.9901618957519531 255.0 10.0 1.0 1.0
1.7376356 1.7314341 -1.491488 0.1675865352153778 0.04861591383814812 0.984657883644104 253.0 11.0 1.0 1.0
1.7074553 1.7373146 -1.4810965 0.17270338535308838 0.053872715681791306 0.9834994673728943 247.0 11.0 1.0 1.0
1.8460535 1.8452672 -1.4845982 0.08097787946462631 0.011560240760445595 0.996648907661438 247.0 12.0 1.0 1.0
1.8290858 1.8669547 -1.4865685 0.15661482512950897 0.0841614380478859 0.9840673208236694 255.0 12.0 1.0 1.0
1.9750789 1.9790897 -1.4869093 0.18767377734184265 0.09207276999950409 0.9779065251350403 250.0 13.0 1.0 1.0
1.9518014 1.9971099 -1.4850253 0.13318482041358948 0.06534048169851303 0.9889349341392517 255.0 13.0 1.0 1.0
2.1027493 2.1114552 -1.4790757 0.1549207717180252 0.047978829592466354 0.9867611527442932 244.0 14.0 1.0 1.0
2.0880508 2.1410291 -1.4844013 0.11558378487825394 0.014178203418850899 0.9931964874267578 253.0 14.0 1.0 1.0
2.2616169 2.2757688 -1.4834032 0.1087985634803772 0.042157549411058426 0.9931694269180298 238.0 15.0 1.0 1.0
2.2250254 2.2862864 -1.4750062 0.15115024149417877 0.038845088332891464 0.987747311592102 238.0 15.0 1.0 1.0
1.7693286 2.6739206 -1.3799523 0.08632247149944305 0.010085551999509335 0.9962162375450134 250.0 16.0 1.0 1.0
1.7292807 2.6737633 -1.3704832 0.16657695174217224 0.06461864709854126 0.9839088320732117 241.0 16.0 1.0 1.0
1.8927894 2.8541322 -1.3647473 0.19656917452812195 0.07371962815523148 0.9777146577835083 229.0 17.0 1.0 1.0
1.856755 2.8644164 -1.3603221 0.19665563106536865 0.06752382218837738 0.9781447052955627 229.0 17.0 1.0 1.0
2.0448678 3.0754271 -1.3570031 0.1556987762451172 0.06620899587869644 0.9855831861495972 214.0 18.0 1.0 1.0
2.0023415 3.0809047 -1.3501245 0.17841853201389313 0.07087955623865128 0.9813984036445618 229.0 18.0 1.0 1.0
2.2040608 3.3074718 -1.3406727 0.1413024216890335 0.05750037357211113 0.9882951378822327 205.0 19.0 1.0 1.0
2.1796672 3.3462276 -1.3470798 0.1500476449728012 0.04426071047782898 0.9876875877380371 229.0 19.0 1.0 1.0
2.4020066 3.5978582 -1.3325671 0.14935079216957092 0.008330334909260273 0.9887492060661316 208.0 20.0 1.0 1.0
2.3370614 3.5811691 -1.3172837 0.11770554631948471 0.01881324127316475 0.9928703904151917 202.0 20.0 1.0 1.0
2.6057501 3.8958225 -1.3100114 0.10045462101697922 0.04626569524407387 0.9938653707504272 184.0 21.0 1.0 1.0
2.5521822 3.9035246 -1.3035736 0.1233472228050232 0.0661914199590683 0.9901535511016846 178.0 21.0 1.0 1.0
2.8562927 4.2625175 -1.2893872 0.14049337804317474 0.01818784698843956 0.9899145364761353 157.0 22.0 1.0 1.0
2.7966397 4.269454 -1.2825875 0.12655393779277802 0.05131418630480766 0.9906315803527832 142.0 22.0 1.0 1.0
3.1509542 4.6953349 -1.2657238 0.1487998217344284 0.0899120643734932 0.9847712516784668 79.0 23.0 1.0 1.0
3.0823629 4.6986752 -1.2578869 0.16013482213020325 0.0515049584209919 0.9857505559921265 103.0 23.0 1.0 1.0
3.518528 5.2373343 -1.2417927 0.12407348304986954 0.06963277608156204 0.9898267388343811 28.0 24.0 1.0 1.0
3.4333482 5.2279406 -1.2310086 0.13835251331329346 0.04654795676469803 0.9892885088920593 13.0 24.0 1.0 1.0
3.9879541 5.9273515 -1.2144216 0.06983807682991028 -0.009401824325323105 0.997514009475708 37.0 25.0 1.0 1.0
3.8823462 5.9028697 -1.2010483 0.13922260701656342 0.021633116528391838 0.9900248646736145 38.0 25.0 1.0 1.0
4.3876314 6.5142398 -1.1268933 0.0074183084070682526 -0.9386006593704224 0.3449258506298065 199.0 26.0 1.0 1.0
4.3888631 6.6656361 -1.1451004 0.10928510874509811 -0.5319613218307495 0.8396867513656616 217.0 26.0 1.0 1.0
4.6487465 6.8969016 -0.97685736 0.056661538779735565 -0.3416397273540497 0.9381214380264282 23.0 27.0 1.0 1.0
4.6374784 7.0380754 -0.9899528 0.17071591317653656 -0.4880772531032562 0.8559420108795166 27.0 27.0 1.0 1.0
5.5462136 8.4079542 -0.9213205 0.9732208251953125 -0.2111162692308426 -0.09094571322202682 21.0 28.0 1.0 1.0
4.4596643 6.7582331 -0.53161186 0.9169973134994507 -0.35756152868270874 -0.17682045698165894 94.0 29.0 1.0 1.0
5.0722733 7.6839342 -0.36865807 -0.12957961857318878 -0.9867568016052246 -0.09757065773010254 8.0 30.0 1.0 5.0
10.763157 10.949337 0.17120305 0.19073159992694855 -0.9731625914573669 0.1287478506565094 16.0 32.0 1.0 5.0
4.9145403 5.1049442 0.078971796 0.16586856544017792 -0.9801425337791443 0.10866528749465942 205.0 32.0 1.0 2.0
4.9889398 5.0711551 0.26056215 0.40826863050460815 -0.895618200302124 0.1765923798084259 25.0 33.0 1.0 2.0
4.9299941 5.1173735 0.26028445 0.4478270709514618 -0.8908249735832214 -0.07669265568256378 190.0 33.0 1.0 1.0
4.963975 5.0439548 0.44002813 0.2546832263469696 -0.9663746953010559 -0.03544722497463226 20.0 34.0 1.0 2.0
4.9357882 5.1215491 0.44227755 -0.005733720492571592 -0.963885486125946 0.266255259513855 190.0 34.0 1.0 1.0
4.9852529 5.0655222 0.62433058 0.04188624769449234 -0.9990530610084534 0.011766736395657063 30.0 35.0 1.0 1.0
4.9567871 5.1432924 0.62749624 0.04320032149553299 -0.9983201622962952 0.03860656917095184 181.0 35.0 1.0 1.0
4.9937396 5.0705442 0.80902898 -0.06562338769435883 -0.9976229667663574 0.021026059985160828 175.0 36.0 1.0 1.0
4.9706783 5.1540542 0.81401408 -0.3301493227481842 -0.9430621266365051 -0.040438029915094376 163.0 36.0 1.0 1.0
4.9903755 5.0635295 0.99432647 -0.08184831589460373 -0.99607253074646 -0.03376989811658859 196.0 37.0 1.0 1.0
4.9893007 5.1697006 1.0048683 0.00348865007981658 -0.9988016486167908 -0.048817139118909836 175.0 37.0 1.0 1.0
4.9402757 5.0073757 1.1683037 0.02468119189143181 -0.975697934627533 -0.21772511303424835 30.0 38.0 1.0 2.0
4.9423528 5.1156273 1.1814256 0.045058708637952805 -0.6887381076812744 -0.7236086130142212 29.0 38.0 1.0 2.0
4.9311976 4.9928761 1.3520445 0.13145790994167328 -0.9482993483543396 0.2888721823692322 20.0 39.0 1.0 2.0
4.8867841 5.0527472 1.3543299 0.020655320957303047 -0.921154797077179 0.3886476457118988 20.0 39.0 1.0 2.0
5.0033031 5.05516 1.758178 -0.04107636958360672 -0.9779770374298096 -0.2046303153038025 47.0 41.0 1.0 2.0
4.923008 5.0794349 1.7485962 -0.03549870848655701 -0.9801034331321716 -0.19528716802597046 41.0 41.0 1.0 0.0
4.443625 4.4832497 1.7356699 -0.10696423798799515 -0.07662924379110336 -0.9913055300712585 32.0 42.0 1.0 1.0
4.4420347 4.5766354 1.7537103 -0.11803444474935532 -0.059353988617658615 -0.9912340641021729 33.0 42.0 1.0 1.0
4.1143904 4.1437092 1.7729095 -0.05960593372583389 -0.6551497578620911 -0.7531439661979675 196.0 43.0 1.0 1.0
4.1347418 4.2524791 1.8008083 -0.1286156326532364 -0.8931333422660828 -0.4310114085674286 238.0 43.0 1.0 1.0
3.6526327 3.6720846 1.7235118 -0.07889819145202637 -0.029197795316576958 -0.9964549541473389 187.0 44.0 1.0 1.0
3.6192148 3.7156146 1.7260493 -0.1340659111738205 -0.08772259205579758 -0.9870821237564087 112.0 44.0 1.0 1.0
3.3911686 3.4031603 1.7426736 -0.15541265904903412 -0.039759185165166855 -0.9870491623878479 244.0 45.0 1.0 1.0
3.3684144 3.451988 1.7495034 -0.12122885882854462 -0.05179347097873688 -0.9912724494934082 235.0 45.0 1.0 1.0
3.1187947 3.1231449 1.7354056 -0.08836518228054047 -0.03752583637833595 -0.9953809976577759 205.0 46.0 1.0 1.0
3.1248941 3.1956069 1.7573664 -0.10123132169246674 -0.06497038155794144 -0.992739200592041 229.0 46.0 1.0 1.0
2.9022748 2.9011374 1.7434734 -0.17493240535259247 -0.04458463564515114 -0.9835704565048218 250.0 47.0 1.0 1.0
2.8845549 2.9445665 1.7513022 -0.06714378297328949 -0.010347257368266582 -0.9976896643638611 253.0 47.0 1.0 1.0
2.2864838 3.429637 1.8899416 -0.0845566913485527 -0.05750162899494171 -0.9947580695152283 211.0 48.0 1.0 1.0
2.2662587 3.477813 1.9032573 -0.11939147114753723 -0.028210768476128578 -0.9924464225769043 214.0 48.0 1.0 1.0
2.1217816 3.1898854 1.8869388 -0.18687541782855988 -0.07252021133899689 -0.9797031879425049 232.0 49.0 1.0 1.0
2.0881968 3.2119768 1.886922 -0.18092145025730133 -0.06428095698356628 -0.9813945889472961 223.0 49.0 1.0 1.0
1.9684528 2.9672894 1.8798596 -0.0634162649512291 0.003569071413949132 -0.9979807734489441 229.0 50.0 1.0 1.0
1.952602 3.0115349 1.8947791 -0.17977483570575714 -0.12281627207994461 -0.9760108590126038 235.0 50.0 1.0 1.0
1.8316637 2.770597 1.8761885 -0.20842213928699493 -0.07019311189651489 -0.9755167961120605 235.0 51.0 1.0 1.0
1.8138258 2.8072274 1.8879743 -0.1470879316329956 0.01634637825191021 -0.9889883399009705 238.0 51.0 1.0 1.0
1.7105516 2.5953398 1.8760923 -0.1524379849433899 -0.07594858855009079 -0.9853904843330383 238.0 52.0 1.0 1.0
1.6887791 2.6217954 1.8822773 -0.18842659890651703 -0.010337033309042454 -0.982032835483551 241.0 52.0 1.0 1.0
1.6290044 2.481112 1.9120513 0.43235719203948975 -0.07701262831687927 -0.8984076976776123 255.0 53.0 1.0 1.0
1.6101317 2.5094054 1.9206997 0.3508175015449524 -0.1033787950873375 -0.9307200908660889 255.0 53.0 1.0 1.0
1.5267812 2.3361518 1.9185671 0.12147471308708191 0.08227215707302094 -0.9891790747642517 255.0 54.0 1.0 1.0
1.4862008 2.3270519 1.8981667 0.12187931686639786 0.011884461157023907 -0.9924737811088562 241.0 54.0 1.0 1.0
1.3994884 2.1512756 1.8822889 -0.13465628027915955 -0.018548021093010902 -0.9907188415527344 255.0 55.0 1.0 1.0
1.3785501 2.1685832 1.8846414 -0.11119674891233444 -0.038197435438632965 -0.9930640459060669 255.0 55.0 1.0 1.0
1.2876735 1.9908602 1.8554848 -0.07149208337068558 -0.0790007933974266 -0.9943076968193054 241.0 56.0 1.0 1.0
1.2784718 2.0229278 1.8727235 -0.0642695352435112 -0.07178612798452377 -0.995347261428833 253.0 56.0 1.0 1.0
1.214132 1.8895346 1.8765413 -0.16805970668792725 -0.036351677030324936 -0.9851062893867493 255.0 57.0 1.0 1.0
1.1974785 1.9073933 1.8816577 -0.14946985244750977 0.06270993500947952 -0.9867756962776184 255.0 57.0 1.0 1.0
1.1297463 1.7698338 1.8746575 -0.08930860459804535 -0.39071887731552124 -0.9161673784255981 255.0 58.0 1.0 1.0
1.1095079 1.7790818 1.8719839 -0.2168603092432022 -0.7021384239196777 -0.6782132387161255 250.0 58.0 1.0 1.0
1.0759628 1.6994157 1.9231024 -0.06388037651777267 -0.9439290165901184 -0.3239094614982605 255.0 59.0 1.0 1.0
1.07021 1.7303172 1.9451981 -0.08688761293888092 -0.4741513431072235 -0.8761455416679382 255.0 59.0 1.0 1.0
1.0122215 1.6150627 1.9556298 -0.048420947045087814 -0.030800551176071167 -0.99835205078125 255.0 60.0 1.0 1.0
0.99664497 1.6280051 1.9584832 -0.048420947045087814 -0.030800551176071167 -0.99835205078125 255.0 60.0 1.0 1.0
0.92580229 1.4946675 1.9409776 -0.08470986783504486 0.010190854780375957 -0.9963535666465759 253.0 61.0 1.0 1.0
0.91559452 1.5135249 1.9528219 -0.11408023536205292 -0.019472232088446617 -0.9932807087898254 255.0 61.0 1.0 1.0
0.84836453 1.3876168 1.9391632 -0.05255774036049843 -0.04991833493113518 -0.9973694682121277 255.0 62.0 1.0 1.0
0.83240342 1.3942648 1.9360904 -0.05255774036049843 -0.04991833493113518 -0.9973694682121277 253.0 62.0 1.0 1.0
0.77881283 1.2948053 1.9551445 -0.0599241778254509 0.18588100373744965 -0.9807432889938354 255.0 63.0 1.0 1.0
0.75771093 1.2902749 1.9361523 -0.09106157720088959 0.7426205277442932 -0.6634926795959473 255.0 63.0 1.0 1.0
10.883322 11.059768 0.96472847 0.2546832263469696 -0.9663746953010559 -0.03544722497463226 13.0 34.0 2.0 5.0
6.4408073 6.5216579 1.7658801 0.13145790994167328 -0.9482993483543396 0.2888721823692322 8.0 39.0 2.0 5.0
0.87460011 0.77409804 -1.5279998 0.1560382843017578 0.0005416454514488578 0.9877508878707886 255.0 0.0 1.0 1.0
0.86286545 0.7799235 -1.5216417 0.16946899890899658 0.014337518252432346 0.9854312539100647 255.0 0.0 1.0 1.0
0.93762988 0.8413015 -1.5161593 0.11576848477125168 0.0351894348859787 0.9926527142524719 255.0 1.0 1.0 1.0
0.93444818 0.85623372 -1.5253793 0.11941249668598175 0.021068615838885307 0.992621123790741 255.0 1.0 1.0 1.0
0.99881625 0.90597838 -1.5028652 0.14884527027606964 0.062493279576301575 0.986883819103241 255.0 2.0 1.0 1.0
0.99125826 0.91817784 -1.5058354 0.11693771928548813 0.030078275129199028 0.9926837086677551 255.0 2.0 1.0 1.0
1.0838902 0.99284124 -1.5209196 0.1407080441713333 -0.005815486423671246 0.9900341629981995 255.0 3.0 1.0 1.0
1.0754886 1.0060099 -1.5237888 0.16098016500473022 0.014928620308637619 0.9868447184562683 255.0 3.0 1.0 1.0
1.1461886 1.0583806 -1.504106 0.177993044257164 0.047938693314790726 0.9828633666038513 255.0 4.0 1.0 1.0
1.1413523 1.0762296 -1.5124247 0.1624753773212433 0.0319802463054657 0.9861941933631897 255.0 4.0 1.0 1.0
1.194822 1.1110137 -1.4684274 0.10630200803279877 0.07362598180770874 0.9916043877601624 23.0 5.0 1.0 1.0
