ply
format ascii 1.0
element vertex 430
property float x
property float y
property float z
property float nx
property float ny
property float nz
property float intensity
property float ring
property float return
property float label
end_header
5.1405411 -4.5820718 -1.0122627 -0.5755477547645569 -0.8000380396842957 0.16936320066452026 226.0 26.0 1.0 1.0
5.0995917 -4.6450634 -0.83416754 -0.0 -1.0 0.0 19.0 27.0 1.0 1.0
5.1420178 -4.5861139 -0.83335567 -0.6411343812942505 -0.7579237818717957 0.12040874361991882 202.0 27.0 1.0 1.0
5.1086211 -4.6576838 -0.65631509 0.17079882323741913 -0.9841323494911194 0.048075806349515915 28.0 28.0 1.0 1.0
5.1749296 -4.6198416 -0.65873367 -0.5572549104690552 -0.8246168494224548 0.09733380377292633 214.0 28.0 1.0 1.0
5.1247139 -4.6734967 -0.47930822 0.06632808595895767 -0.9844298362731934 -0.16278350353240967 26.0 29.0 1.0 1.0
5.2001543 -4.6434984 -0.48194149 -0.5004891157150269 -0.8320374488830566 -0.23921599984169006 211.0 29.0 1.0 2.0
5.1728492 -4.718554 -0.30451241 0.1420566737651825 -0.9790145754814148 0.14611798524856567 28.0 30.0 1.0 1.0
5.2130337 -4.6561418 -0.30414164 -0.5627399682998657 -0.8012205362319946 -0.2033948451280594 202.0 30.0 1.0 2.0
5.1910949 -4.7363625 -0.12662816 0.3840301036834717 -0.9233171343803406 0.0025205553974956274 27.0 31.0 1.0 1.0
5.2374272 -4.6790819 -0.12670763 -0.01609673909842968 -0.9651830196380615 0.26107972860336304 193.0 31.0 1.0 1.0
4.5225801 -5.9678531 0.060279258 -0.857252836227417 -0.4978243112564087 0.13148532807826996 255.0 32.0 1.0 1.0
4.5725861 -5.9043603 0.059956573 -0.9626198410987854 -0.2616146504878998 0.07014860957860947 255.0 32.0 1.0 1.0
4.5256619 -5.9755969 0.25131702 -0.8380704522132874 -0.5374305844306946 0.09384144842624664 255.0 33.0 1.0 1.0
4.6100154 -5.9563437 0.25235927 -0.938340961933136 -0.31447190046310425 0.14360883831977844 255.0 33.0 1.0 1.0
4.4762216 -5.9117994 0.43797943 -0.45669499039649963 -0.47672238945961 -0.7511095404624939 208.0 34.0 1.0 1.0
4.5598822 -5.8930383 0.43993983 -0.29923561215400696 -0.23474249243736267 -0.924853503704071 199.0 34.0 1.0 1.0
4.0641456 -5.366878 0.57031101 -0.23240453004837036 -0.21049126982688904 -0.949569046497345 40.0 35.0 1.0 1.0
4.2347689 -5.4721999 0.5860272 -0.16549062728881836 -0.8387718200683594 -0.5187239646911621 166.0 35.0 1.0 1.0
3.6446123 -4.8157172 0.66754526 -0.543493390083313 -0.06028665229678154 -0.8372458219528198 127.0 36.0 1.0 1.0
3.6924217 -4.774159 0.66697496 -0.5616490840911865 -0.05766735598444939 -0.8253633975982666 142.0 36.0 1.0 1.0
3.3184717 -4.3873754 0.75193298 -0.06851319968700409 -0.004239765461534262 -0.9976411461830139 202.0 37.0 1.0 1.0
3.3763638 -4.3680825 0.75452143 -0.06696701049804688 -0.016462277621030807 -0.9976193904876709 205.0 37.0 1.0 1.0
3.0823956 -4.0791626 0.83281773 -0.031870175153017044 -0.1333131194114685 -0.9905613660812378 229.0 38.0 1.0 1.0
3.0935922 -4.0060549 0.82434899 -0.10853182524442673 -0.09933579713106155 -0.989117443561554 193.0 38.0 1.0 1.0
2.85584 -3.7829533 0.8978976 -0.07632477581501007 0.003316202200949192 -0.997077465057373 223.0 39.0 1.0 1.0
2.9049134 -3.7653096 0.90077204 -0.09226866811513901 -0.01421001460403204 -0.9956327676773071 244.0 39.0 1.0 1.0
2.6796758 -3.5517011 0.96290135 -0.09446137398481369 0.029181838035583496 -0.995100736618042 253.0 40.0 1.0 1.0
2.7334447 -3.5451427 0.96872634 -0.09446750581264496 -0.02687038853764534 -0.9951652884483337 255.0 40.0 1.0 1.0
2.5444775 -3.3769579 1.0311933 -0.17114977538585663 -0.1133570522069931 -0.9787021279335022 255.0 41.0 1.0 1.0
2.5607538 -3.325515 1.0235209 -0.5579676032066345 -0.07080050557851791 -0.8268370628356934 255.0 41.0 1.0 1.0
2.3373833 -3.1061642 1.0558037 -0.1631377637386322 -0.06391968578100204 -0.9845304489135742 241.0 42.0 1.0 1.0
2.4027386 -3.1243856 1.0703948 -0.1627883017063141 -0.09136639535427094 -0.9824215769767761 255.0 42.0 1.0 1.0
2.2344692 -2.9743893 1.1167479 -0.19765232503414154 -0.07194072008132935 -0.977628767490387 255.0 43.0 1.0 1.0
2.2351892 -2.9113417 1.1017188 -0.19029667973518372 -0.07626906037330627 -0.9787594676017761 247.0 43.0 1.0 1.0
2.101876 -2.802567 1.1534859 -0.11293171346187592 -0.053528208285570145 -0.9921598434448242 255.0 44.0 1.0 1.0
2.1265056 -2.7743967 1.1509082 -0.16290685534477234 -0.05315318703651428 -0.9852086305618286 255.0 44.0 1.0 1.0
1.9766237 -2.639956 1.1844816 -0.1454927772283554 -0.04401080310344696 -0.9883800148963928 255.0 45.0 1.0 1.0
2.0064666 -2.6221285 1.185762 -0.1454927772283554 -0.04401080310344696 -0.9883800148963928 255.0 45.0 1.0 1.0
1.8830742 -2.5201323 1.2254333 -0.19584105908870697 -0.037308115512132645 -0.9799257516860962 255.0 46.0 1.0 1.0
1.895812 -2.4825246 1.216655 -0.12294651567935944 -0.08078471571207047 -0.989119827747345 255.0 46.0 1.0 1.0
1.7789474 -2.3847346 1.2528632 -0.12205792963504791 -0.06272786110639572 -0.9905387163162231 255.0 47.0 1.0 1.0
1.8060777 -2.3689342 1.254351 -0.11251693218946457 -0.05308552086353302 -0.9922308325767517 255.0 47.0 1.0 1.0
2.1148639 -1.9025395 1.2919042 -0.2396979033946991 -0.028183918446302414 -0.9704383015632629 255.0 48.0 1.0 1.0
2.1237619 -1.8706844 1.2852273 -0.23979075253009796 0.004516356624662876 -0.9708141684532166 255.0 48.0 1.0 1.0
1.9878857 -1.7842495 1.3036114 -0.10896514356136322 -0.057308681309223175 -0.9923922419548035 255.0 49.0 1.0 1.0
2.0010829 -1.7586153 1.3000453 -0.10872223973274231 -0.08787986636161804 -0.9901800751686096 255.0 49.0 1.0 1.0
1.882964 -1.6856391 1.3224047 -0.10406092554330826 -0.01750299707055092 -0.9944168925285339 255.0 50.0 1.0 1.0
1.9138572 -1.6775407 1.3316224 -0.119400255382061 -0.01747264713048935 -0.9926924705505371 255.0 50.0 1.0 1.0
1.8100548 -1.61498 1.3585589 -0.16980783641338348 -0.05928918346762657 -0.9836920499801636 255.0 51.0 1.0 1.0
1.8163784 -1.5867784 1.3506887 -0.12161482870578766 -0.059716351330280304 -0.9907793998718262 255.0 51.0 1.0 1.0
1.7132276 -1.5240132 1.3724041 -0.13889707624912262 -0.06135844439268112 -0.9884041547775269 255.0 52.0 1.0 1.0
1.7291151 -1.5060176 1.3723547 -0.13889707624912262 -0.06135844439268112 -0.9884041547775269 255.0 52.0 1.0 1.0
1.6222214 -1.4377121 1.3849823 -0.12064816057682037 -0.07024434208869934 -0.9902068972587585 255.0 53.0 1.0 1.0
1.6372101 -1.4206747 1.3849356 -0.1208900511264801 -0.05199581757187843 -0.9913032054901123 255.0 53.0 1.0 1.0
1.5539058 -1.3710905 1.413195 -0.13497015833854675 -0.03487946465611458 -0.9902356266975403 255.0 54.0 1.0 1.0
1.5632011 -1.35045 1.4086431 -0.13497015833854675 -0.03487946465611458 -0.9902356266975403 255.0 54.0 1.0 1.0
1.4776317 -1.2980124 1.4310524 -0.13682407140731812 -0.05721257999539375 -0.9889417886734009 255.0 55.0 1.0 1.0
1.4985209 -1.2888268 1.4380703 -0.10486774146556854 -0.05743729695677757 -0.9928261041641235 255.0 55.0 1.0 1.0
1.4064072 -1.228653 1.4499652 -0.09824087470769882 -0.10491533577442169 -0.989616870880127 255.0 56.0 1.0 1.0
1.4168195 -1.2118334 1.447472 -0.14900346100330353 -0.10424841940402985 -0.9833260774612427 255.0 56.0 1.0 1.0
1.337281 -1.1609954 1.4680592 -0.10998151451349258 -0.055551204830408096 -0.9923800230026245 255.0 57.0 1.0 1.0
1.3517348 -1.1489531 1.4705739 -0.11000450700521469 -0.0516638308763504 -0.9925875067710876 255.0 57.0 1.0 1.0
1.2651824 -1.0915365 1.4802246 -0.11470130831003189 -0.04886692762374878 -0.9921973347663879 253.0 58.0 1.0 1.0
1.285714 -1.0859895 1.4907985 -0.11470130831003189 -0.04886692762374878 -0.9921973347663879 255.0 58.0 1.0 1.0
1.2038165 -1.0306168 1.5032809 -0.09278380870819092 -0.05901516228914261 -0.993935763835907 253.0 59.0 1.0 1.0
1.2234609 -1.0254443 1.5142586 -0.11763228476047516 -0.03394388034939766 -0.9924768805503845 255.0 59.0 1.0 1.0
1.1482557 -0.97374117 1.5324987 -0.051268868148326874 -0.7921084761619568 -0.6082234382629395 255.0 60.0 1.0 1.0
1.1433218 -0.94915533 1.5124918 -0.051268868148326874 -0.7921084761619568 -0.6082234382629395 250.0 60.0 1.0 1.0
1.1264185 -0.94481236 1.610041 -0.109566330909729 -0.4786694049835205 -0.871131956577301 255.0 61.0 1.0 1.0
1.1321087 -0.92957258 1.6041018 -0.09417153894901276 -0.49799835681915283 -0.8620495796203613 255.0 61.0 1.0 1.0
1.0641444 -0.88182735 1.6342772 -0.07313434034585953 0.022535787895321846 -0.9970674514770508 255.0 62.0 1.0 1.0
1.0713409 -0.86904067 1.6311932 -0.07313434034585953 0.022535787895321846 -0.9970674514770508 255.0 62.0 1.0 1.0
0.99640328 -0.81335175 1.6502559 -0.1164093166589737 -0.056644339114427567 -0.9915847778320312 255.0 63.0 1.0 1.0
1.0029719 -0.80137074 1.6470734 -0.10271105915307999 -0.056730449199676514 -0.9930921792984009 255.0 63.0 1.0 1.0
8.5208168 -7.7326741 -2.6166966 -0.2249191552400589 -0.9660087823867798 0.12742963433265686 8.0 23.0 2.0 1.0
0.72105539 -1.1084886 -1.7381115 0.09625054150819778 0.05057397484779358 0.9940714836120605 255.0 0.0 1.0 1.0
0.73796403 -1.108922 -1.7508745 0.08112998306751251 0.03536125645041466 0.9960760474205017 255.0 0.0 1.0 1.0
0.80498004 -1.2188263 -1.7662435 0.0953538715839386 0.047799840569496155 0.9942951202392578 255.0 1.0 1.0 1.0
0.81910259 -1.2124201 -1.7693574 0.0953538715839386 0.047799840569496155 0.9942951202392578 255.0 1.0 1.0 1.0
0.88248849 -1.32017 -1.778129 0.12817633152008057 0.0653606578707695 0.9895952939987183 253.0 2.0 1.0 1.0
0.90676093 -1.3262326 -1.7990491 0.09377861768007278 0.06561384350061417 0.9934285879135132 255.0 2.0 1.0 1.0
0.97031677 -1.4359158 -1.8018308 0.058843281120061874 0.011078482493758202 0.9982057809829712 253.0 3.0 1.0 1.0
0.99000365 -1.4324975 -1.8105175 0.11178591847419739 0.011028153821825981 0.9936710596084595 255.0 3.0 1.0 1.0
1.0648545 -1.5618795 -1.8314058 0.10154394060373306 0.004847425501793623 0.9948192834854126 250.0 4.0 1.0 1.0
1.0729176 -1.5388347 -1.8175285 0.09202476590871811 0.011925884522497654 0.9956852793693542 244.0 4.0 1.0 1.0
1.1591282 -1.6870883 -1.8514338 0.11553765088319778 0.04747587814927101 0.9921678304672241 247.0 5.0 1.0 1.0
1.1818213 -1.6821167 -1.8595283 0.11553765088319778 0.04747587814927101 0.9921678304672241 247.0 5.0 1.0 1.0
1.2632036 -1.8258759 -1.8780465 0.11478064209222794 0.08042459189891815 0.9901298880577087 244.0 6.0 1.0 1.0
1.2857559 -1.8175106 -1.8832613 0.1113467589020729 0.0114047322422266 0.9937161207199097 238.0 6.0 1.0 1.0
1.3718592 -1.9715055 -1.9024763 0.18789657950401306 -0.013355365954339504 0.9820979833602905 229.0 7.0 1.0 1.0
1.4033066 -1.9723378 -1.9174314 0.08696446567773819 -0.01354603935033083 0.9961192607879639 244.0 7.0 1.0 1.0
1.4944744 -2.1369894 -1.9363718 0.08397696167230606 0.0032161767594516277 0.9964624643325806 232.0 8.0 1.0 1.0
1.5223471 -2.1290348 -1.9435827 0.10336948931217194 0.0032102877739816904 0.9946378469467163 235.0 8.0 1.0 1.0
1.6251545 -2.3122897 -1.9681449 0.10075370222330093 0.02506459876894951 0.9945955872535706 220.0 9.0 1.0 1.0
1.6569132 -2.3057826 -1.97735 0.10078376531600952 0.00562166515737772 0.994892418384552 229.0 9.0 1.0 1.0
1.7895706 -2.5373662 -2.0270212 0.13998368382453918 0.033035989850759506 0.9896025657653809 223.0 10.0 1.0 1.0
1.8121002 -2.5130262 -2.0227141 0.06953965872526169 0.04397575184702873 0.9966093897819519 226.0 10.0 1.0 1.0
1.9381878 -2.7375264 -2.0519288 0.12073738127946854 -0.018037492409348488 0.9925205707550049 193.0 11.0 1.0 1.0
1.9727221 -2.7253458 -2.0582638 0.040113527327775955 -0.018155794590711594 0.9990301728248596 193.0 11.0 1.0 1.0
2.1372914 -3.0083051 -2.1123655 0.07167015224695206 0.02290639653801918 0.9971652626991272 178.0 12.0 1.0 1.0
2.166609 -2.9829223 -2.1104577 0.12385721504688263 0.08227726072072983 0.9888831973075867 187.0 12.0 1.0 1.0
2.3591862 -3.3116291 -2.1768086 0.08977918326854706 0.004153278190642595 0.9959530234336853 166.0 13.0 1.0 1.0
2.3957827 -3.2895641 -2.1787841 0.10385922342538834 0.05821264535188675 0.9928869605064392 169.0 13.0 1.0 1.0
2.615659 -3.6630714 -2.2498825 0.10011707991361618 0.03107263706624508 0.9944903254508972 142.0 14.0 1.0 1.0
2.6622818 -3.6470101 -2.257134 0.09652293473482132 0.05953959375619888 0.9935484528541565 148.0 14.0 1.0 1.0
2.9207721 -4.0808396 -2.3375161 0.07535260170698166 0.02770989015698433 0.9967718124389648 88.0 15.0 1.0 1.0
2.9419074 -4.0207338 -2.3207326 0.11157374829053879 0.05136287212371826 0.9924278855323792 73.0 15.0 1.0 1.0
4.0933037 -3.8257623 -2.4327779 -0.8438599705696106 -0.5287756323814392 0.09108542650938034 199.0 16.0 1.0 1.0
4.1060462 -3.7578824 -2.416965 -0.9523207545280457 -0.08097780495882034 0.29415613412857056 115.0 16.0 1.0 1.0
4.1146474 -3.8532915 -2.2675962 -0.44901517033576965 -0.893514096736908 0.004228656645864248 250.0 17.0 1.0 1.0
4.0508213 -3.7146442 -2.2109838 0.4171329736709595 -0.9081459641456604 -0.03564976155757904 205.0 17.0 1.0 1.0
4.1342921 -3.8806877 -2.1044343 -0.3816416263580322 -0.6888806223869324 0.6162735819816589 232.0 18.0 1.0 1.0
4.1001387 -3.7686284 -2.0669723 0.5155277848243713 -0.7691518068313599 0.3776727020740509 193.0 18.0 1.0 1.0
4.5367813 -4.2669816 -2.1235859 -0.4150936007499695 -0.785894513130188 0.4583307206630707 220.0 19.0 1.0 1.0
4.5616951 -4.2012572 -2.114682 -0.09744510799646378 -0.9253005385398865 0.3665016293525696 196.0 19.0 1.0 1.0
4.564333 -4.2998939 -1.9542764 -0.21153607964515686 -0.9284335374832153 0.30539077520370483 208.0 20.0 1.0 1.0
4.5782113 -4.2233515 -1.9413174 -0.14900565147399902 -0.9516169428825378 0.26874256134033203 196.0 20.0 1.0 1.0
4.6357532 -4.3743196 -1.804267 -0.18712051212787628 -0.8928056955337524 0.40973618626594543 211.0 21.0 1.0 1.0
4.6501918 -4.2967782 -1.7924174 -0.14647649228572845 -0.887620210647583 0.43666350841522217 205.0 21.0 1.0 1.0
4.6960988 -4.4385104 -1.6466572 -0.3882179856300354 -0.797060489654541 0.4625812768936157 127.0 22.0 1.0 1.0
4.7309213 -4.3785372 -1.6428442 -0.30269262194633484 -0.838138997554779 0.45376232266426086 130.0 22.0 1.0 1.0
8.5015631 -8.0462275 -2.6614118 -0.013111168518662453 -0.9989495873451233 -0.043906208127737045 23.0 23.0 1.0 6.0
8.4909191 -7.8692245 -2.6323931 -0.005750587675720453 -0.9987449645996094 -0.04975508525967598 23.0 23.0 1.0 6.0
8.5449266 -8.0948563 -2.3577781 0.04005877673625946 -0.9956652522087097 0.08393945544958115 16.0 24.0 1.0 6.0
8.5630617 -7.9435496 -2.3399577 -0.0025506005622446537 -0.9998115301132202 0.019248751923441887 17.0 24.0 1.0 6.0
9.8021116 -9.2979107 -2.3436899 -0.04849592596292496 -0.9956263303756714 0.0798521414399147 19.0 25.0 1.0 5.0
9.8183422 -9.3220625 -1.9894079 0.0032875819597393274 -0.9992104768753052 0.03959392011165619 15.0 26.0 1.0 5.0
5.1481781 -4.8974643 -0.30870163 -0.07603549212217331 -0.9951882362365723 0.061797335743904114 25.0 30.0 1.0 1.0
5.1582456 -4.8051481 -0.30642128 -0.11820835620164871 -0.9860805869102478 -0.11692697554826736 23.0 30.0 1.0 1.0
4.4012985 -6.0677176 0.060672991 -0.6502666473388672 -0.7507724761962891 0.11616315692663193 255.0 32.0 1.0 1.0
4.4407802 -5.9891706 0.060189638 -0.7962080240249634 -0.5816697478294373 0.1664724200963974 255.0 32.0 1.0 1.0
4.4253201 -6.104651 0.25312197 -0.5720990300178528 -0.806085467338562 0.15142306685447693 255.0 33.0 1.0 1.0
4.4604521 -6.0194383 0.25135124 -0.8090309500694275 -0.5668070912361145 0.15555958449840546 255.0 33.0 1.0 1.0
4.3631258 -6.0203872 0.43948504 -0.3821277916431427 -0.40174949169158936 -0.8322113156318665 214.0 34.0 1.0 1.0
4.4259386 -5.9743814 0.43932521 -0.7407801747322083 -0.20737162232398987 -0.6389378309249878 223.0 34.0 1.0 1.0
3.8713124 -5.3410554 0.55912298 -0.15152578055858612 -0.4337717592716217 -0.8881902694702148 151.0 35.0 1.0 1.0
3.8938258 -5.2554007 0.55425376 -0.08951882272958755 -0.03183326497673988 -0.9954763054847717 13.0 35.0 1.0 1.0
3.5639167 -4.9199381 0.67176634 -0.1705254316329956 -0.046112529933452606 -0.9842736721038818 190.0 36.0 1.0 1.0
3.6294467 -4.9015379 0.67427254 -0.4883215129375458 -0.02578216977417469 -0.8722829222679138 184.0 36.0 1.0 1.0
3.2374444 -4.4719305 0.75488335 -0.13381975889205933 -0.06457825005054474 -0.9888993501663208 190.0 37.0 1.0 1.0
3.2841084 -4.4378023 0.75476468 -0.0951676294207573 -0.005426029209047556 -0.9954464435577393 205.0 37.0 1.0 1.0
2.9916253 -4.1363883 0.83175552 -0.1739291250705719 -0.052287809550762177 -0.983368992805481 217.0 38.0 1.0 1.0
3.0230579 -4.0889792 0.82843035 -0.142136350274086 -0.08664575219154358 -0.986047625541687 211.0 38.0 1.0 1.0
2.7920554 -3.864198 0.90331727 -0.11290809512138367 -0.0 -0.9936054944992065 235.0 39.0 1.0 1.0
2.8160415 -3.812638 0.89800334 -0.07855425029993057 -0.008173016831278801 -0.9968762993812561 220.0 39.0 1.0 1.0
2.6000845 -3.6006656 0.96140373 -0.11026590317487717 -0.009540305472910404 -0.9938563108444214 241.0 40.0 1.0 1.0
2.6492708 -3.5889909 0.9655388 -0.12559305131435394 -0.04494495689868927 -0.9910632371902466 253.0 40.0 1.0 1.0
2.4413335 -3.3853345 1.0181085 0.05387585982680321 -0.04045694321393967 -0.9977277517318726 226.0 41.0 1.0 1.0
2.4858892 -3.3721197 1.0218098 -0.17209874093532562 -0.04327545687556267 -0.9841286540031433 241.0 41.0 1.0 1.0
2.2943246 -3.1857219 1.0664585 -0.24582238495349884 -0.07775451987981796 -0.966191291809082 255.0 42.0 1.0 1.0
2.3115604 -3.1397824 1.0590352 -0.17672057449817657 -0.016925740987062454 -0.984115481376648 250.0 42.0 1.0 1.0
2.1470416 -2.9862721 1.1042589 -0.1205131784081459 -0.07254203408956528 -0.9900577068328857 255.0 43.0 1.0 1.0
2.200897 -2.994523 1.1156803 -0.12958012521266937 -0.08637533336877823 -0.9877997636795044 255.0 43.0 1.0 1.0
2.0448828 -2.8490179 1.1548897 -0.13625568151474 -0.05122119188308716 -0.9893485903739929 255.0 44.0 1.0 1.0
2.0723772 -2.824409 1.1535634 -0.13601550459861755 -0.07833848893642426 -0.9876046776771545 255.0 44.0 1.0 1.0
1.9055028 -2.6593082 1.1751603 -0.1271037608385086 -0.0597015917301178 -0.9900910258293152 250.0 45.0 1.0 1.0
1.9510577 -2.6635325 1.1859065 -0.1271587759256363 -0.05197848379611969 -0.9905195236206055 255.0 45.0 1.0 1.0
1.8384961 -2.5711026 1.2313781 -0.1899130642414093 -0.13292470574378967 -0.9727610349655151 255.0 46.0 1.0 1.0
1.8631403 -2.5487258 1.2298583 -0.18664789199829102 -0.13286946713924408 -0.973400354385376 255.0 46.0 1.0 1.0
1.719992 -2.4094212 1.2467828 -0.1393912434577942 -0.011136898770928383 -0.9901747703552246 255.0 47.0 1.0 1.0
1.7603563 -2.4121523 1.257586 -0.13900214433670044 -0.07548655569553375 -0.9874107837677002 255.0 47.0 1.0 1.0
2.0426304 -1.916459 1.2721864 -0.4332130551338196 -0.03370474651455879 -0.9006611108779907 238.0 48.0 1.0 1.0
2.092103 -1.922101 1.2903214 -0.3948061168193817 -0.07155702263116837 -0.9159736633300781 255.0 48.0 1.0 1.0
1.9342799 -1.8107022 1.2932084 0.14072348177433014 -0.022639766335487366 -0.9897900223731995 241.0 49.0 1.0 1.0
1.9584548 -1.7952336 1.2966604 0.1740572601556778 -0.05677194520831108 -0.9830977320671082 250.0 49.0 1.0 1.0
1.8575469 -1.734336 1.3299407 -0.1566910594701767 -0.06022641435265541 -0.9858096241950989 255.0 50.0 1.0 1.0
1.8730131 -1.7124246 1.3280317 -0.10388526320457458 -0.060651157051324844 -0.9927382469177246 255.0 50.0 1.0 1.0
1.7527847 -1.631085 1.3410789 -0.10463273525238037 -0.04051808640360832 -0.9936851859092712 253.0 51.0 1.0 1.0
1.7852645 -1.6267763 1.3527554 -0.10463273525238037 -0.04051808640360832 -0.9936851859092712 255.0 51.0 1.0 1.0
1.6859018 -1.5641824 1.3766193 -0.09561066329479218 -0.08157271146774292 -0.992070734500885 255.0 52.0 1.0 1.0
1.6971321 -1.5418534 1.3724613 -0.06376738846302032 -0.04966352880001068 -0.996728241443634 255.0 52.0 1.0 1.0
1.5966403 -1.4759018 1.3893905 -0.09430363774299622 -0.0760868489742279 -0.9926316142082214 255.0 53.0 1.0 1.0
1.6170274 -1.4636548 1.3936515 -0.09430363774299622 -0.0760868489742279 -0.9926316142082214 255.0 53.0 1.0 1.0
1.5320779 -1.4100014 1.4200525 -0.11530604958534241 -0.08397937566041946 -0.989773690700531 255.0 54.0 1.0 1.0
1.5418736 -1.3894837 1.4155004 -0.06492658704519272 -0.03336082398891449 -0.9973323345184326 255.0 54.0 1.0 1.0
1.450057 -1.3286265 1.4311435 -0.13690416514873505 -0.04589240625500679 -0.9895206689834595 255.0 55.0 1.0 1.0
1.4663204 -1.3155588 1.433455 -0.13690416514873505 -0.04589240625500679 -0.9895206689834595 255.0 55.0 1.0 1.0
1.3803 -1.2577899 1.4500517 -0.16163623332977295 -0.03562507778406143 -0.986207127571106 255.0 56.0 1.0 1.0
1.3887057 -1.2390881 1.4451052 -0.13977673649787903 -0.061421189457178116 -0.9882762432098389 255.0 56.0 1.0 1.0
1.3194504 -1.1949023 1.4758004 -0.16356001794338226 -0.05513760820031166 -0.9849913716316223 255.0 57.0 1.0 1.0
1.3319145 -1.1810497 1.4757624 -0.10998151451349258 -0.055551204830408096 -0.9923800230026245 255.0 57.0 1.0 1.0
1.2486506 -1.1237561 1.4882599 -0.12056783586740494 -0.0339820496737957 -0.9921233057975769 255.0 58.0 1.0 1.0
1.2491455 -1.1007484 1.4749612 -0.12056783586740494 -0.0339820496737957 -0.9921233057975769 250.0 58.0 1.0 1.0
1.1818988 -1.0555533 1.5033542 -0.1070263534784317 -0.4781385064125061 -0.8717389702796936 250.0 59.0 1.0 1.0
1.1929115 -1.0431495 1.5033203 -0.12164736539125443 -0.058830659836530685 -0.9908283948898315 255.0 59.0 1.0 1.0
1.1464276 -1.0142484 1.5582516 -0.09415357559919357 -0.903276264667511 -0.4186011254787445 255.0 60.0 1.0 1.0
1.1379485 -0.985695 1.5325363 -0.09415357559919357 -0.903276264667511 -0.4186011254787445 255.0 60.0 1.0 1.0
1.1123967 -0.97347486 1.6189715 -0.1358473002910614 -0.04688207432627678 -0.9896199107170105 255.0 61.0 1.0 1.0
1.1102712 -0.95127165 1.6012157 -0.109566330909729 -0.4786694049835205 -0.871131956577301 255.0 61.0 1.0 1.0
1.0356034 -0.89541882 1.6190681 -0.11708603799343109 -0.004344844724982977 -0.9931122064590454 255.0 62.0 1.0 1.0
1.0528306 -0.89123529 1.6312572 -0.14334246516227722 0.022362947463989258 -0.9894204139709473 255.0 62.0 1.0 1.0
0.98281646 -0.83717936 1.6566259 -0.11812089383602142 -0.08240551501512527 -0.9895740151405334 255.0 63.0 1.0 1.0
0.98211789 -0.81899714 1.6408225 -0.11617911607027054 -0.08454078435897827 -0.9896238446235657 255.0 63.0 1.0 1.0
9.9796619 -9.2972565 -0.59296793 -0.11820835620164871 -0.9860805869102478 -0.11692697554826736 5.0 30.0 2.0 1.0
0.70157701 -1.1295513 -1.7476075 0.09635425359010696 0.020176026970148087 0.9951426386833191 255.0 0.0 1.0 1.0
0.71204656 -1.1200763 -1.744452 0.09625054150819778 0.05057397484779358 0.9940714836120605 255.0 0.0 1.0 1.0
0.77118903 -1.22251 -1.7476872 0.09529062360525131 0.060066256672143936 0.9936355352401733 255.0 1.0 1.0 1.0
0.79221559 -1.227198 -1.7662137 0.0953538715839386 0.047799840569496155 0.9942951202392578 255.0 1.0 1.0 1.0
0.85471284 -1.3383942 -1.7780627 0.12843072414398193 0.017774805426597595 0.9915592074394226 250.0 2.0 1.0 1.0
0.87302822 -1.3360405 -1.7870471 0.12843072414398193 0.017774805426597595 0.9915592074394226 255.0 2.0 1.0 1.0
0.94160253 -1.4582841 -1.804641 0.05882169306278229 0.029262110590934753 0.9978395700454712 255.0 3.0 1.0 1.0
0.95832592 -1.4506353 -1.807561 0.058843281120061874 0.011078482493758202 0.9982057809829712 255.0 3.0 1.0 1.0
1.0272774 -1.5766482 -1.8229761 0.10150504112243652 0.028092531487345695 0.9944382905960083 247.0 4.0 1.0 1.0
1.0484854 -1.5729541 -1.8313663 0.10154394060373306 0.004847425501793623 0.9948192834854126 253.0 4.0 1.0 1.0
1.125239 -1.7135068 -1.8540306 0.08539585024118423 -0.020148789510130882 0.9961434602737427 253.0 5.0 1.0 1.0
1.1430968 -1.7016062 -1.8540741 0.14632833003997803 -0.020004983991384506 0.9890337586402893 253.0 5.0 1.0 1.0
1.2264422 -1.854512 -1.8805357 0.11515288800001144 -0.0036768040154129267 0.9933410286903381 244.0 6.0 1.0 1.0
1.2474813 -1.8440731 -1.8831664 0.11478064209222794 0.08042459189891815 0.9901298880577087 241.0 6.0 1.0 1.0
1.3355497 -2.0076709 -1.9098254 0.1511358618736267 0.06684897840023041 0.9862500429153442 250.0 7.0 1.0 1.0
1.3600023 -1.9987361 -1.9148443 0.18775519728660583 0.041018642485141754 0.9813590049743652 244.0 7.0 1.0 1.0
1.4548191 -2.1758637 -1.943415 0.09768007695674896 -0.005721287336200476 0.9952014088630676 241.0 8.0 1.0 1.0
1.4738747 -2.1551826 -1.9387012 0.08397602289915085 -0.005728472489863634 0.9964513182640076 238.0 8.0 1.0 1.0
1.5819386 -2.3540277 -1.9748821 0.1252005398273468 0.022117100656032562 0.9918848276138306 232.0 9.0 1.0 1.0
1.6101947 -2.3427181 -1.9795144 0.15142129361629486 0.04881810024380684 0.9872630834579468 235.0 9.0 1.0 1.0
1.7248836 -2.5576608 -2.0137687 0.0877581313252449 0.0019682685378938913 0.9961398839950562 217.0 10.0 1.0 1.0
1.7458422 -2.5311596 -2.0072739 0.11913691461086273 0.08640353381633759 0.9891111254692078 217.0 10.0 1.0 1.0
1.8900729 -2.7916832 -2.0622222 0.1322401463985443 0.04885370284318924 0.990013062953949 202.0 11.0 1.0 1.0
1.911409 -2.7604883 -2.0539443 0.13214103877544403 0.06229951232671738 0.9892711639404297 193.0 11.0 1.0 1.0
2.0680509 -3.0438297 -2.106246 0.07426577806472778 0.006654929369688034 0.9972162246704102 190.0 12.0 1.0 1.0
2.1057255 -3.0305324 -2.1122861 0.07353990525007248 0.1396285742521286 0.9874693751335144 187.0 12.0 1.0 1.0
2.2774889 -3.3428624 -2.1653066 0.11676573753356934 0.08465618640184402 0.9895448684692383 157.0 13.0 1.0 1.0
2.3123412 -3.3188016 -2.1653929 0.0897044837474823 0.04099789634346962 0.9951242804527283 163.0 13.0 1.0 1.0
2.526355 -3.6993585 -2.2389586 0.09460381418466568 0.02868364006280899 0.9951016306877136 124.0 14.0 1.0 1.0
2.5731189 -3.6844044 -2.246208 0.0763920322060585 0.017220398411154747 0.9969291090965271 121.0 14.0 1.0 1.0
2.8060899 -4.0992637 -2.3136559 0.10853972285985947 0.014133645221590996 0.9939916729927063 73.0 15.0 1.0 1.0
2.8654649 -4.093389 -2.3272734 0.07522617280483246 0.06417444348335266 0.9950993657112122 82.0 15.0 1.0 1.0
4.0754333 -3.9721611 -2.4707534 -0.10247442126274109 -0.925481379032135 0.3646685779094696 178.0 16.0 1.0 1.0
4.0769649 -3.8912299 -2.4469774 -0.18301300704479218 -0.9756972193717957 0.12050388753414154 187.0 16.0 1.0 1.0
4.0915403 -3.9957058 -2.3001761 -0.19814079999923706 -0.9776036143302917 -0.07093317061662674 255.0 17.0 1.0 1.0
4.0902209 -3.9115679 -2.2764132 -0.251252144575119 -0.9670354723930359 -0.0414084792137146 244.0 17.0 1.0 1.0
4.0950704 -4.0084305 -2.1264405 -0.0910758301615715 -0.9504949450492859 0.2970934212207794 232.0 18.0 1.0 1.0
4.0907755 -3.9211819 -2.1029017 -0.13622607290744781 -0.9401224255561829 0.31242963671684265 220.0 18.0 1.0 1.0
4.4411016 -4.3557925 -2.1207166 -0.7198842167854309 -0.3422712981700897 0.6038352847099304 181.0 19.0 1.0 1.0
4.4891744 -4.3116422 -2.1221404 -0.5899002552032471 -0.5868759155273438 0.55461186170578 208.0 19.0 1.0 1.0
4.522388 -4.4427495 -1.9754087 0.43311893939971924 -0.8700649738311768 0.2353612631559372 157.0 20.0 1.0 1.0
4.5521278 -4.3792367 -1.968403 -0.2937009036540985 -0.8952866792678833 0.3349650800228119 211.0 20.0 1.0 1.0
4.6611519 -4.5865602 -1.8508189 0.09233298152685165 -0.9129552841186523 0.39747607707977295 172.0 21.0 1.0 1.0
4.6091385 -4.4413257 -1.8117357 -0.09192019701004028 -0.9577465057373047 0.2725294828414917 211.0 21.0 1.0 1.0
4.7760844 -4.7073417 -1.7085841 0.06947147846221924 -0.9719286561012268 0.2247852087020874 103.0 22.0 1.0 1.0
4.6689248 -4.5062923 -1.6534116 0.1686057150363922 -0.9148354530334473 0.36694440245628357 37.0 22.0 1.0 1.0
5.7274332 -5.6524158 -1.8291404 0.09973099082708359 -0.9945474863052368 -0.030477967113256454 26.0 23.0 1.0 5.0
5.8507886 -5.6544552 -1.8497084 -0.164371520280838 -0.9804978370666504 0.10773181170225143 17.0 23.0 1.0 5.0
5.7369957 -5.6671615 -1.6149106 -0.07725579291582108 -0.9945793747901917 0.06959456205368042 26.0 24.0 1.0 5.0
5.8890252 -5.6967511 -1.6410081 -0.015580333769321442 -0.9984506368637085 0.05341828987002373 22.0 24.0 1.0 5.0
5.73598 -5.6734557 -1.3990868 -0.028288165107369423 -0.9995945692062378 -0.003253092523664236 26.0 25.0 1.0 5.0
5.8884726 -5.7035546 -1.421819 -0.046965405344963074 -0.998896062374115 0.0008942019776441157 21.0 25.0 1.0 5.0
5.7711744 -5.713634 -1.1928669 -0.019631652161478996 -0.9992843866348267 0.03233028203248978 26.0 26.0 1.0 5.0
5.9272757 -5.7465405 -1.2128103 -0.02806105650961399 -0.9995574951171875 0.009865501895546913 22.0 26.0 1.0 5.0
5.7920985 -5.7377467 -0.98518938 -0.06786850094795227 -0.9970844984054565 -0.03487404063344002 26.0 27.0 1.0 5.0
5.9544582 -5.7763171 -1.0026445 0.011418169364333153 -0.99256432056427 0.12118407338857651 23.0 27.0 1.0 5.0
5.796978 -5.7479887 -0.77429318 0.026819175109267235 -0.9985589981079102 0.04648415371775627 25.0 28.0 1.0 5.0
5.9539723 -5.7812867 -0.78731465 0.021074553951621056 -0.9954167008399963 0.09328144788742065 22.0 28.0 1.0 5.0
5.8254743 -5.7776556 -0.56626999 0.05161028727889061 -0.995488703250885 0.07961546629667282 25.0 29.0 1.0 5.0
5.9772482 -5.805306 -0.57526356 0.0020502512343227863 -0.9999504089355469 -0.009750834666192532 24.0 29.0 1.0 5.0
5.1976824 -5.1561885 -0.3177439 0.018463395535945892 -0.9821308851242065 -0.18729151785373688 34.0 30.0 1.0 1.0
5.1826024 -5.0346427 -0.31373388 -0.028342077508568764 -0.9959978461265564 -0.08476360887289047 27.0 30.0 1.0 1.0
5.8767223 -5.8313446 -0.14844206 -0.06022489070892334 -0.9929295182228088 0.10229363292455673 26.0 31.0 1.0 5.0
5.9948273 -5.8252349 -0.15005611 -0.035788651555776596 -0.9872065186500549 0.15537835657596588 23.0 31.0 1.0 5.0
4.3142948 -6.217701 0.061581247 -0.2584141194820404 -0.9627949595451355 0.0790448784828186 255.0 32.0 1.0 1.0
4.353714 -6.1363025 0.061063789 -0.45700451731681824 -0.8841020464897156 0.097520612180233 255.0 32.0 1.0 1.0
4.3443236 -6.2649608 0.25626805 -0.2531587779521942 -0.9609701633453369 0.11156658083200455 255.0 33.0 1.0 1.0
4.3611431 -6.1506476 0.25328696 -0.41064217686653137 -0.9042902588844299 0.11675690859556198 255.0 33.0 1.0 1.0
4.354351 -6.2810678 0.45208469 -0.13488857448101044 -0.9494262933731079 -0.28353989124298096 255.0 34.0 1.0 1.0
4.3644791 -6.1569533 0.44625691 -0.29094770550727844 -0.6821414232254028 -0.6708446741104126 255.0 34.0 1.0 1.0
3.7699358 -5.4373093 0.5610972 -0.1390412598848343 -0.1771117001771927 -0.9743196964263916 130.0 35.0 1.0 1.0
3.8266771 -5.3975487 0.56095636 -0.13752460479736328 -0.3908349573612213 -0.9101290702819824 157.0 35.0 1.0 1.0
3.4442186 -4.9705901 0.6689502 -0.12241251021623611 -0.031570594757795334 -0.9919770359992981 193.0 36.0 1.0 1.0
3.5075839 -4.9504881 0.67101961 -0.1574314832687378 -0.07662365585565567 -0.9845526814460754 190.0 36.0 1.0 1.0
3.1588361 -4.5615273 0.75891507 -0.5026041865348816 -0.03603912517428398 -0.8637651205062866 193.0 37.0 1.0 1.0
3.1949944 -4.512044 0.75608748 -0.06592065840959549 -0.03285997733473778 -0.9972836375236511 196.0 37.0 1.0 1.0
2.911041 -4.2078409 0.83390528 -0.2069663107395172 -0.09496305882930756 -0.9737282991409302 214.0 38.0 1.0 1.0
2.9572394 -4.1803689 0.83443964 -0.17112167179584503 -0.1365053504705429 -0.9757477641105652 223.0 38.0 1.0 1.0
2.7149432 -3.9282551 0.90501189 -0.0640239343047142 -0.07642494887113571 -0.9950177669525146 247.0 39.0 1.0 1.0
2.7378035 -3.8739512 0.89895284 -0.07738061249256134 0.004127039574086666 -0.9969930648803711 220.0 39.0 1.0 1.0
2.5373912 -3.6735945 0.96667278 -0.09737461060285568 -0.012388325296342373 -0.9951707720756531 244.0 40.0 1.0 1.0
2.5712278 -3.6404562 0.96488523 -0.09727707505226135 -0.04642530530691147 -0.9941739439964294 253.0 40.0 1.0 1.0
2.3875015 -3.4612753 1.0258719 -0.44210952520370483 -0.04055585712194443 -0.8960437774658203 238.0 41.0 1.0 1.0
2.4258723 -3.4392834 1.0267303 -0.44234558939933777 -0.024049291387200356 -0.8965221047401428 241.0 41.0 1.0 1.0
2.2248659 -3.2298548 1.0655783 -0.20483705401420593 -0.18279103934764862 -0.9615764617919922 247.0 42.0 1.0 1.0
2.2519162 -3.1969347 1.0623492 0.06092981621623039 -0.1836622655391693 -0.9810991883277893 247.0 42.0 1.0 1.0
2.0926595 -3.0431709 1.1090177 -0.1422763615846634 -0.06744905561208725 -0.9875262379646301 255.0 43.0 1.0 1.0
2.1310403 -3.0305166 1.1123898 -0.12047326564788818 -0.0804189071059227 -0.989453911781311 255.0 43.0 1.0 1.0
1.9847155 -2.8911774 1.1550399 -0.13205498456954956 -0.10989168286323547 -0.985132098197937 255.0 44.0 1.0 1.0
1.9974427 -2.8453803 1.1449561 -0.13205498456954956 -0.10989168286323547 -0.985132098197937 255.0 44.0 1.0 1.0
1.8791221 -2.7420697 1.1942327 -0.14978499710559845 -0.05149266868829727 -0.9873768091201782 255.0 45.0 1.0 1.0
1.8926339 -2.7006843 1.1846964 -0.14971813559532166 -0.05951135605573654 -0.986936092376709 255.0 45.0 1.0 1.0
1.7484345 -2.5566916 1.2068276 -0.1978183090686798 -0.025240784510970116 -0.9799137115478516 241.0 46.0 1.0 1.0
1.8007561 -2.5749252 1.2241859 -0.14443913102149963 -0.07483048737049103 -0.9866800904273987 255.0 46.0 1.0 1.0
1.6711751 -2.447917 1.2484617 -0.10957129299640656 -0.016820739954710007 -0.9938365817070007 255.0 47.0 1.0 1.0
1.7030667 -2.439378 1.2530565 -0.10957995057106018 -0.011178967542946339 -0.9939150810241699 255.0 47.0 1.0 1.0
2.0176029 -1.9740587 1.2822409 -0.0637223869562149 -0.11952653527259827 -0.9907839894294739 241.0 48.0 1.0 1.0
2.0276685 -1.9427687 1.2755637 -0.08891905844211578 -0.08508970588445663 -0.9923976063728333 241.0 48.0 1.0 1.0
1.9267343 -1.8809088 1.3143858 -0.21082961559295654 -0.05132172256708145 -0.9761745929718018 253.0 49.0 1.0 1.0
1.9255637 -1.840781 1.3002917 0.24477684497833252 -0.06216815859079361 -0.9675843715667725 244.0 49.0 1.0 1.0
1.8156792 -1.7678674 1.3263474 -0.08591339737176895 -0.05181371793150902 -0.9949544072151184 255.0 50.0 1.0 1.0
1.8366783 -1.7512304 1.3281482 -0.1567688137292862 -0.051362961530685425 -0.9862987995147705 255.0 50.0 1.0 1.0
1.7306974 -1.6795459 1.350963 -0.1361006647348404 -0.02552477829158306 -0.9903660416603088 255.0 51.0 1.0 1.0
1.7507415 -1.6637627 1.3528663 -0.1361006647348404 -0.02552477829158306 -0.9903660416603088 255.0 51.0 1.0 1.0
1.6576421 -1.6038752 1.380834 -0.13523520529270172 -0.029934119433164597 -0.990361213684082 255.0 52.0 1.0 1.0
1.6619147 -1.5746516 1.3705121 -0.13523520529270172 -0.029934119433164597 -0.990361213684082 255.0 52.0 1.0 1.0
1.5701684 -1.5136499 1.3937981 -0.12609662115573883 -0.023975690826773643 -0.9917281866073608 255.0 53.0 1.0 1.0
1.5908561 -1.5017816 1.3980596 -0.12609662115573883 -0.023975690826773643 -0.9917281866073608 255.0 53.0 1.0 1.0
1.4878467 -1.4279984 1.406624 -0.08723518252372742 -0.04247264564037323 -0.9952818751335144 255.0 54.0 1.0 1.0
1.5075555 -1.4168962 1.4110879 -0.08723518252372742 -0.04247264564037323 -0.9952818751335144 255.0 54.0 1.0 1.0
1.4288607 -1.3653616 1.4382948 -0.1300608366727829 -0.10912022739648819 -0.9854830503463745 255.0 55.0 1.0 1.0
1.445464 -1.3525636 1.4406065 -0.13070406019687653 -0.04593119025230408 -0.9903568625450134 255.0 55.0 1.0 1.0
1.3444316 -1.2776662 1.4403232 -0.12478432804346085 -0.03581761568784714 -0.9915372133255005 255.0 56.0 1.0 1.0
1.3577604 -1.2635467 1.4402838 -0.12478432804346085 -0.03581761568784714 -0.9915372133255005 250.0 56.0 1.0 1.0
1.2963064 -1.2243406 1.4784349 -0.16369575262069702 -0.037214796990156174 -0.9858086705207825 255.0 57.0 1.0 1.0
1.2955201 -1.19818 1.4630783 -0.16369575262069702 -0.037214796990156174 -0.9858086705207825 247.0 57.0 1.0 1.0
1.2335018 -1.157811 1.4989479 -0.12017648667097092 -0.08734213560819626 -0.9889029860496521 255.0 58.0 1.0 1.0
1.2345648 -1.1347269 1.4856483 -0.12056783586740494 -0.0339820496737957 -0.9921233057975769 255.0 58.0 1.0 1.0
1.159464 -1.0800261 1.5034267 -0.07870038598775864 -0.8660449385643005 -0.49373316764831543 255.0 59.0 1.0 1.0
1.166448 -1.0639431 1.4978864 -0.08051380515098572 -0.5527910590171814 -0.8294212222099304 255.0 59.0 1.0 1.0
1.1392767 -1.0512968 1.5782984 -0.1078532263636589 -0.6110097765922546 -0.7842415571212769 253.0 60.0 1.0 1.0
1.1481694 -1.0374604 1.5754117 -0.18009302020072937 -0.6462491154670715 -0.7415717840194702 255.0 60.0 1.0 1.0
1.0916914 -0.99650735 1.6190391 -0.1358473002910614 -0.04688207432627678 -0.9896199107170105 255.0 61.0 1.0 1.0
1.0960618 -0.97965902 1.6101452 -0.1358473002910614 -0.04688207432627678 -0.9896199107170105 255.0 61.0 1.0 1.0
1.0184661 -0.91859072 1.6221855 -0.11707893759012222 -0.011844014748930931 -0.9930519461631775 255.0 62.0 1.0 1.0
1.0319251 -0.91132784 1.6282657 -0.11707893759012222 -0.011844014748930931 -0.9930519461631775 255.0 62.0 1.0 1.0
0.96866608 -0.86079484 1.6629956 -0.171064093708992 -0.08176325261592865 -0.981861412525177 255.0 63.0 1.0 1.0
0.96838307 -0.84256387 1.6471918 -0.11812089383602142 -0.08240551501512527 -0.9895740151405334 255.0 63.0 1.0 1.0
8.5173101 -8.4061193 -2.7202611 0.09973099082708359 -0.9945474863052368 -0.030477967113256454 11.0 23.0 2.0 6.0
8.4870434 -8.2025776 -2.6832709 -0.164371520280838 -0.9804978370666504 0.10773181170225143 16.0 23.0 2.0 6.0
0.67166346 -1.133606 -1.7316365 0.12198270112276077 0.020118970423936844 0.9923283457756042 255.0 0.0 1.0 1.0
0.68724167 -1.1327024 -1.7412144 0.12198270112276077 0.020118970423936844 0.9923283457756042 255.0 0.0 1.0 1.0
0.75205028 -1.2493464 -1.7630408 0.0710967630147934 0.03575925529003143 0.9968281984329224 255.0 1.0 1.0 1.0
0.75705028 -1.2283567 -1.7445761 0.09529062360525131 0.060066256672143936 0.9936355352401733 253.0 1.0 1.0 1.0
0.81963217 -1.344654 -1.7630805 0.10824039578437805 0.046446166932582855 0.9930391907691956 247.0 2.0 1.0 1.0
0.84351295 -1.3518018 -1.783998 0.10835696756839752 -0.002583454828709364 0.9941086173057556 255.0 2.0 1.0 1.0
0.90655953 -1.4706333 -1.795921 0.08585008978843689 0.027187999337911606 0.9959371089935303 255.0 3.0 1.0 1.0
0.91892964 -1.4563458 -1.7901913 0.08574572205543518 0.056278329342603683 0.9947263598442078 247.0 3.0 1.0 1.0
0.99258345 -1.5954092 -1.8201151 0.04633904993534088 0.02114708349108696 0.9987018704414368 244.0 4.0 1.0 1.0
1.0076704 -1.5824809 -1.8173712 0.10150504112243652 0.028092531487345695 0.9944382905960083 247.0 4.0 1.0 1.0
1.0860249 -1.7317023 -1.8485793 0.1163519024848938 0.054741665720939636 0.9916983842849731 250.0 5.0 1.0 1.0
1.1120839 -1.7326964 -1.8620385 0.06635377556085587 0.004365301225334406 0.9977865815162659 255.0 5.0 1.0 1.0
1.1727331 -1.8565813 -1.8571945 0.13618765771389008 0.039275310933589935 0.9899042844772339 232.0 6.0 1.0 1.0
1.2103156 -1.872393 -1.8856568 0.06836376339197159 -0.0036927673500031233 0.9976536631584167 250.0 6.0 1.0 1.0
1.2916015 -2.0325878 -1.9072415 0.17414849996566772 0.06107718497514725 0.9828234314918518 238.0 7.0 1.0 1.0
1.3110822 -2.0162976 -1.9048085 0.1471930742263794 0.07321562618017197 0.9863942861557007 235.0 7.0 1.0 1.0
1.4020919 -2.1950619 -1.9337673 0.1018308699131012 0.055570218712091446 0.9932484030723572 244.0 8.0 1.0 1.0
1.4302458 -2.1883001 -1.9409761 0.10198558866977692 0.007533053867518902 0.9947574138641357 244.0 8.0 1.0 1.0
1.5252753 -2.3756263 -1.9656204 0.0966796725988388 0.017489418387413025 0.9951618909835815 226.0 9.0 1.0 1.0
1.5554487 -2.3677299 -1.9725373 0.09667477756738663 0.02017839252948761 0.9951114654541016 235.0 9.0 1.0 1.0
1.6692033 -2.5904441 -2.0114529 0.14165738224983215 0.02408915013074875 0.9896225929260254 226.0 10.0 1.0 1.0
1.6962126 -2.5727966 -2.0115178 0.14135883748531342 0.03766585513949394 0.9892416000366211 220.0 10.0 1.0 1.0
1.8201545 -2.8134992 -2.0495572 0.08444856107234955 0.023935863748192787 0.9961403012275696 199.0 11.0 1.0 1.0
1.8513732 -2.7971044 -2.0517151 0.12198934704065323 0.06181371584534645 0.9906047582626343 199.0 11.0 1.0 1.0
2.0020425 -3.0835981 -2.1041043 0.09875717014074326 0.055764030665159225 0.9935478568077087 190.0 12.0 1.0 1.0
2.0265152 -3.0508687 -2.0962334 0.1197998970746994 0.021564967930316925 0.9925638437271118 181.0 12.0 1.0 1.0
2.1993694 -3.3780429 -2.1575851 0.10806319862604141 -0.008876143954694271 0.9941043257713318 151.0 13.0 1.0 1.0
2.2463219 -3.3724096 -2.1689973 0.1169443130493164 0.06424641609191895 0.9910582304000854 172.0 13.0 1.0 1.0
2.4445035 -3.7455029 -2.2351933 0.10118773579597473 0.052652157843112946 0.9934731125831604 142.0 14.0 1.0 1.0
2.4696574 -3.6988387 -2.2227693 0.10356537252664566 0.06776995956897736 0.9923111796379089 106.0 14.0 1.0 1.0
2.7157464 -4.1511045 -2.3100686 0.08820362389087677 -0.00017811717407312244 0.996102511882782 67.0 15.0 1.0 1.0
2.7650864 -4.1314487 -2.3152397 0.08819489181041718 0.014071966521441936 0.9960038661956787 82.0 15.0 1.0 1.0
4.030045 -4.0959196 -2.4943881 0.03752122446894646 -0.8977482914924622 0.4389079511165619 148.0 16.0 1.0 1.0
4.0596819 -4.0405169 -2.4865448 -0.14250873029232025 -0.6657152771949768 0.7324713468551636 169.0 16.0 1.0 1.0
4.0642509 -4.1388164 -2.332752 -0.16074436902999878 -0.9840562343597412 -0.07612188160419464 235.0 17.0 1.0 1.0
4.0705528 -4.059309 -2.3119781 -0.14559483528137207 -0.9830463528633118 -0.11145472526550293 244.0 17.0 1.0 1.0
4.0575418 -4.1415734 -2.1512277 -0.16689376533031464 -0.9760520458221436 0.1395312249660492 232.0 18.0 1.0 1.0
4.0794454 -4.0776172 -2.1402173 -0.11478728801012039 -0.9238598346710205 0.36511218547821045 232.0 18.0 1.0 1.0
4.2801771 -4.377491 -2.0868759 0.042694803327322006 -0.13808071613311768 0.9895003437995911 10.0 19.0 1.0 1.0
4.3846021 -4.3913498 -2.1154025 -0.6890771985054016 0.011557460762560368 0.7245957851409912 124.0 19.0 1.0 1.0
4.5938082 -4.7059636 -2.0488944 0.05740802735090256 -0.9796032905578613 0.19256621599197388 184.0 20.0 1.0 1.0
4.5888934 -4.6034751 -2.0252342 0.07254501432180405 -0.9682594537734985 0.2391875833272934 184.0 20.0 1.0 1.0
4.6554723 -4.7769241 -1.887556 0.027681389823555946 -0.9404945969581604 0.33867940306663513 175.0 21.0 1.0 1.0
4.6726384 -4.6951485 -1.8746254 0.05503782257437706 -0.9056301712989807 0.4204818308353424 187.0 21.0 1.0 1.0
4.7630105 -4.8952665 -1.7398795 -0.1028476133942604 -0.8830068707466125 0.4579533636569977 115.0 22.0 1.0 1.0
4.7812071 -4.8121014 -1.7281733 0.026624159887433052 -0.8376474380493164 0.5455619692802429 124.0 22.0 1.0 1.0
5.5372033 -5.6984153 -1.8057241 -0.05699005350470543 -0.9941084384918213 0.09219850599765778 26.0 23.0 1.0 5.0
5.6157794 -5.6594782 -1.8120991 0.041807692497968674 -0.9965888261795044 0.0711519718170166 27.0 23.0 1.0 5.0
5.5433574 -5.7101021 -1.593339 -0.020526595413684845 -0.9987784624099731 0.0449465811252594 27.0 24.0 1.0 5.0
5.6138735 -5.6628623 -1.5966496 -0.02076752297580242 -0.9983406066894531 0.05370927229523659 26.0 24.0 1.0 5.0
5.5830407 -5.7583971 -1.3905191 -0.0123043367639184 -0.9982220530509949 0.05832056328654289 29.0 25.0 1.0 5.0
5.6568823 -5.7136049 -1.3941066 0.03624318540096283 -0.9968183636665344 0.07098900526762009 28.0 25.0 1.0 5.0
5.5869718 -5.7678709 -1.1791295 0.07563140243291855 -0.9970793128013611 -0.010614275932312012 27.0 26.0 1.0 5.0
5.6832285 -5.745616 -1.1868567 -0.05390710011124611 -0.9982452988624573 0.024502074345946312 27.0 26.0 1.0 5.0
5.643084 -5.8292637 -0.98002076 0.04687550663948059 -0.99097740650177 0.1255643665790558 27.0 27.0 1.0 5.0
5.6982222 -5.7641931 -0.97923326 0.01743139885365963 -0.999487578868866 0.026844095438718796 26.0 27.0 1.0 5.0
5.6255307 -5.816606 -0.76712513 -0.13760177791118622 -0.9841300845146179 0.11204422265291214 29.0 28.0 1.0 5.0
5.7057095 -5.7772074 -0.76994061 0.04644870012998581 -0.9981050491333008 0.04035956412553787 27.0 28.0 1.0 5.0
5.6699343 -5.8639579 -0.56259298 0.05958050489425659 -0.9742631912231445 0.2173967808485031 28.0 29.0 1.0 5.0
5.7282195 -5.8014207 -0.5624907 -0.08034735918045044 -0.994983434677124 0.059602152556180954 26.0 29.0 1.0 5.0
5.2191014 -5.3989544 -0.3255575 0.005890640430152416 -0.9982671737670898 -0.05854935571551323 55.0 30.0 1.0 1.0
5.2107825 -5.2785897 -0.32172829 0.0004519406065810472 -0.9976944923400879 -0.06786402314901352 43.0 30.0 1.0 1.0
5.7255225 -5.924366 -0.14734948 0.03026137314736843 -0.9946884512901306 0.09838254004716873 27.0 31.0 1.0 5.0
5.7563477 -5.8327751 -0.14673586 -0.07789167016744614 -0.9910541772842407 0.10837239027023315 27.0 31.0 1.0 5.0
4.2892389 -6.46668 0.063469127 -0.008539644069969654 -0.9991026520729065 0.0414833128452301 19.0 32.0 1.0 1.0
4.2960987 -6.3320432 0.062426358 0.06699973344802856 -0.9977524280548096 -0.0011299422476440668 226.0 32.0 1.0 1.0
4.5964274 -6.9343767 0.27999112 -0.1324000209569931 -0.06037837639451027 -0.989355742931366 35.0 33.0 1.0 1.0
4.3053904 -6.3498096 0.25804326 0.08162358403205872 -0.9960594177246094 0.03468574583530426 205.0 33.0 1.0 1.0
4.276968 -6.4540744 0.45831606 -0.05705604329705238 -0.8778764605522156 -0.4754760265350342 166.0 34.0 1.0 1.0
4.3420887 -6.4056406 0.45791668 0.023456048220396042 -0.9683007001876831 -0.24868358671665192 238.0 34.0 1.0 1.0
3.6684198 -5.534977 0.56340599 -0.1109200194478035 -0.06819204986095428 -0.9914870858192444 139.0 35.0 1.0 1.0
3.7194819 -5.4863758 0.56225199 -0.14946086704730988 -0.10102047026157379 -0.9835934638977051 145.0 35.0 1.0 1.0
3.350311 -5.0581751 0.67140555 -0.12873300909996033 -0.08097320050001144 -0.9883679151535034 181.0 36.0 1.0 1.0
3.3897295 -5.0030808 0.66863889 -0.10236553102731705 -0.06897057592868805 -0.9923529028892517 157.0 36.0 1.0 1.0
3.0669525 -4.6332593 0.76023406 -0.4838446080684662 -0.03920825198292732 -0.8742752075195312 154.0 37.0 1.0 1.0
3.1130948 -4.5976253 0.75957495 -0.5061542987823486 -0.04177967086434364 -0.8614304065704346 202.0 37.0 1.0 1.0
2.8265958 -4.2744365 0.83540857 -0.0925666093826294 -0.05750482529401779 -0.9940445423126221 208.0 38.0 1.0 1.0
2.8667929 -4.238081 0.83401376 -0.11940934509038925 -0.007565785199403763 -0.9928163290023804 199.0 38.0 1.0 1.0
2.6320384 -3.9842167 0.90521353 -0.1310165524482727 -0.1176048070192337 -0.9843799471855164 232.0 39.0 1.0 1.0
2.6648302 -3.9434309 0.90213358 -0.1558983027935028 -0.04376845806837082 -0.9868029356002808 229.0 39.0 1.0 1.0
2.4555488 -3.7193668 0.96516818 -0.09610170125961304 -0.058018166571855545 -0.9936792850494385 241.0 40.0 1.0 1.0
2.507503 -3.7129111 0.97015291 -0.055716078728437424 -0.07188574969768524 -0.9958555102348328 255.0 40.0 1.0 1.0
2.3336895 -3.5396817 1.0345826 -0.4004502594470978 -0.06648392975330353 -0.9139034152030945 255.0 41.0 1.0 1.0
2.3684726 -3.5118506 1.0335453 -0.48306718468666077 -0.055416084825992584 -0.8738278746604919 253.0 41.0 1.0 1.0
2.1439538 -3.2563572 1.0594506 -0.5377697348594666 -0.06345313042402267 -0.8407005667686462 211.0 42.0 1.0 1.0
2.18011 -3.2369525 1.0604172 -0.5325217247009277 -0.05214717984199524 -0.8448085188865662 229.0 42.0 1.0 1.0
2.0284181 -3.0862904 1.1091732 -0.06220873072743416 -0.0475018247961998 -0.9969321489334106 253.0 43.0 1.0 1.0
2.0627809 -3.068083 1.1102458 -0.14240214228630066 -0.052806731313467026 -0.9883992671966553 255.0 43.0 1.0 1.0
1.9215949 -2.9288919 1.153936 -0.11335965991020203 -0.03728263080120087 -0.9928541779518127 255.0 44.0 1.0 1.0
1.9458292 -2.899168 1.1501083 -0.14567767083644867 -0.08733552694320679 -0.9854696989059448 255.0 44.0 1.0 1.0
1.8171055 -2.7744825 1.1916674 -0.18791024386882782 -0.1446055918931961 -0.9714828729629517 255.0 45.0 1.0 1.0
1.8397943 -2.745944 1.1875404 -0.1580485701560974 -0.14537782967090607 -0.9766708612442017 255.0 45.0 1.0 1.0
1.7250264 -2.6395113 1.2287414 -0.08542177081108093 -0.0512186624109745 -0.995027482509613 255.0 46.0 1.0 1.0
1.7608761 -2.6337233 1.2344837 -0.17913712561130524 -0.03909991681575775 -0.98304682970047 255.0 46.0 1.0 1.0
1.62754 -2.4946883 1.2547973 -0.11168116331100464 -0.07432530075311661 -0.9909606575965881 255.0 47.0 1.0 1.0
1.6515491 -2.4744675 1.2531819 -0.15292394161224365 -0.11592920124530792 -0.9814146161079407 255.0 47.0 1.0 1.0
1.9834052 -2.0236409 1.2873321 -0.24513958394527435 -0.08713968843221664 -0.9655637145042419 247.0 48.0 1.0 1.0
1.9942054 -1.9924881 1.2806542 0.17040789127349854 -0.11606937646865845 -0.9785137176513672 238.0 48.0 1.0 1.0
1.8944148 -1.9284984 1.3197721 -0.30879640579223633 -0.005128832068294287 -0.9511143565177917 255.0 49.0 1.0 1.0
1.9297978 -1.9238117 1.3302433 -0.21110489964485168 -0.005273374728858471 -0.9774492383003235 255.0 49.0 1.0 1.0
1.7732238 -1.8004098 1.322752 0.22048065066337585 -0.08827332407236099 -0.9713886380195618 255.0 50.0 1.0 1.0
1.797026 -1.7867684 1.3264083 -0.08591339737176895 -0.05181371793150902 -0.9949544072151184 255.0 50.0 1.0 1.0
1.7048905 -1.7253096 1.3588922 -0.09132695943117142 -0.07660700380802155 -0.9928699135780334 255.0 51.0 1.0 1.0
1.7154515 -1.7000184 1.3529758 -0.09132695943117142 -0.07660700380802155 -0.9928699135780334 255.0 51.0 1.0 1.0
1.611549 -1.6260034 1.3706644 -0.12117194384336472 -0.05740376561880112 -0.990970253944397 255.0 52.0 1.0 1.0
