ply
format ascii 1.0
element vertex 430
property float x
property float y
property float z
property float nx
property float ny
property float nz
property float intensity
property float ring
property float return
property float label
end_header
2.3765287 -5.7158904 0.68716407 -0.1384509950876236 -0.0773816630244255 -0.987341582775116 154.0 36.0 1.0 1.0
2.2342448 -5.2254066 0.77966231 -0.13043652474880219 -0.07132300734519958 -0.9888879656791687 199.0 37.0 1.0 1.0
2.1809361 -5.2522135 0.77999806 -0.12633103132247925 -0.019218575209379196 -0.9918020367622375 172.0 37.0 1.0 1.0
2.0612047 -4.8291245 0.85784543 -0.35585108399391174 -0.0005375336040742695 -0.9345424771308899 175.0 38.0 1.0 1.0
2.0135598 -4.8577771 0.8589437 -0.3934565484523773 -0.022312315180897713 -0.9190723299980164 178.0 38.0 1.0 1.0
1.9117179 -4.4867468 0.92622334 -0.1319521814584732 -0.08015520125627518 -0.9880099892616272 238.0 39.0 1.0 1.0
1.8676493 -4.5138249 0.9275381 -0.08559060841798782 -0.04046769440174103 -0.9955081939697266 232.0 39.0 1.0 1.0
1.7756302 -4.1726727 0.98355991 -0.09570685774087906 -0.06013770401477814 -0.9935912489891052 241.0 40.0 1.0 1.0
1.7288646 -4.1838584 0.98169702 -0.14810854196548462 -0.013745189644396305 -0.9888756275177002 229.0 40.0 1.0 1.0
1.646204 -3.8772628 1.0292293 -0.11446627974510193 -0.0651770532131195 -0.9912868142127991 220.0 41.0 1.0 1.0
1.6247919 -3.9410298 1.0414242 -0.10629260540008545 0.007233350072056055 -0.9943085312843323 253.0 41.0 1.0 1.0
1.5628263 -3.6891687 1.0899841 -0.1605949103832245 -0.09383193403482437 -0.9825501441955566 255.0 42.0 1.0 1.0
1.5255934 -3.7089498 1.0908878 -0.16912201046943665 -0.10359738022089005 -0.9801353216171265 255.0 42.0 1.0 1.0
1.4594669 -3.4547064 1.1274521 -0.08296167850494385 -0.0722821056842804 -0.9939278960227966 217.0 43.0 1.0 1.0
1.4188614 -3.4592199 1.1238581 -0.4734613597393036 -0.019724812358617783 -0.8805937170982361 211.0 43.0 1.0 1.0
1.3702048 -3.2524114 1.1635934 0.04738106578588486 -0.07626578956842422 -0.9959611296653748 255.0 44.0 1.0 1.0
1.3418431 -3.2806954 1.1684763 0.07009182125329971 -0.12241522967815399 -0.99000084400177 253.0 44.0 1.0 1.0
1.3005025 -3.0955458 1.2073431 -0.19199290871620178 -0.058706216514110565 -0.9796388745307922 255.0 45.0 1.0 1.0
1.2666086 -3.1055634 1.2058659 -0.06126883998513222 -0.05601150915026665 -0.9965484738349915 255.0 45.0 1.0 1.0
1.2249786 -2.9253774 1.2366937 -0.11271647363901138 0.016097890213131905 -0.9934967756271362 255.0 46.0 1.0 1.0
1.1956985 -2.9415505 1.2380313 -0.1260904222726822 -0.13081447780132294 -0.9833558797836304 255.0 46.0 1.0 1.0
1.1518599 -2.7585292 1.2600466 0.014203418046236038 -0.9075257778167725 -0.41975605487823486 255.0 47.0 1.0 1.0
1.1589539 -2.8592916 1.3003507 -0.09889324009418488 -0.9740807414054871 -0.20343714952468872 255.0 47.0 1.0 1.0
1.5695093 -2.330389 1.2809204 -0.13209709525108337 -0.055694498121738434 -0.9896708726882935 255.0 48.0 1.0 1.0
1.5590532 -2.3680251 1.2924432 -0.1957123726606369 -0.03163520619273186 -0.9801509380340576 255.0 48.0 1.0 1.0
1.4989213 -2.2211807 1.3125733 -0.14675678312778473 -0.04917312040925026 -0.987949550151825 255.0 49.0 1.0 1.0
1.4696591 -2.2278199 1.3072002 -0.1408568024635315 -0.04921574518084526 -0.9888059496879578 255.0 49.0 1.0 1.0
1.4523311 -2.1470757 1.3612092 -0.47740426659584045 -0.00511682266369462 -0.8786689043045044 255.0 50.0 1.0 1.0
1.4239215 -2.153367 1.3555387 -0.47610992193222046 -0.07376296073198318 -0.8762866854667664 255.0 50.0 1.0 1.0
1.3645241 -2.0110943 1.3657838 -0.09124229848384857 -0.2517019808292389 -0.963494062423706 244.0 51.0 1.0 1.0
1.3511211 -2.0369511 1.3735415 -0.09333071857690811 -0.17666222155094147 -0.9798367023468018 241.0 51.0 1.0 1.0
1.315397 -1.9334693 1.4043417 -0.035587187856435776 -0.08871877938508987 -0.9954207539558411 255.0 52.0 1.0 1.0
1.3007963 -1.9557604 1.4104412 -0.03560023754835129 -0.0845191553235054 -0.9957857131958008 255.0 52.0 1.0 1.0
1.228285 -1.7993078 1.3965225 -0.18201899528503418 -0.04135890677571297 -0.982424795627594 255.0 53.0 1.0 1.0
1.2075223 -1.8093323 1.3942882 -0.14844614267349243 -0.042953405529260635 -0.9879871606826782 255.0 53.0 1.0 1.0
1.170213 -1.7071589 1.4159571 -0.12254995107650757 -0.46552667021751404 -0.8765079975128174 255.0 54.0 1.0 1.0
1.1522893 -1.7193803 1.4158859 -0.14511136710643768 -0.842782735824585 -0.518324077129364 255.0 54.0 1.0 1.0
1.1282835 -1.6392133 1.4525269 -0.06078753620386124 -0.7188023924827576 -0.6925517320632935 255.0 55.0 1.0 1.0
1.1417594 -1.6965439 1.4925611 -0.06078753620386124 -0.7188023924827576 -0.6925517320632935 255.0 55.0 1.0 1.0
1.1221191 -1.6217148 1.5360162 -0.10946974158287048 -0.4371096193790436 -0.89272141456604 255.0 56.0 1.0 1.0
1.0962459 -1.6203803 1.5236557 -0.14448107779026031 -0.022058675065636635 -0.9892616868019104 255.0 56.0 1.0 1.0
1.0592995 -1.5219232 1.5420067 -0.14258503913879395 -0.01613020710647106 -0.9896512031555176 255.0 57.0 1.0 1.0
1.0450542 -1.5355392 1.5445015 -0.14258503913879395 -0.01613020710647106 -0.9896512031555176 255.0 57.0 1.0 1.0
1.0047424 -1.4351066 1.5568074 -0.15402700006961823 -0.010520696640014648 -0.9880106449127197 255.0 58.0 1.0 1.0
0.97784507 -1.4283558 1.5381436 -0.15402700006961823 -0.010520696640014648 -0.9880106449127197 244.0 58.0 1.0 1.0
0.95674813 -1.356626 1.579794 -0.11973497271537781 -0.05637453868985176 -0.9912039637565613 255.0 59.0 1.0 1.0
0.9441539 -1.3690213 1.5824956 -0.11992552131414413 0.0017160560237243772 -0.992781400680542 255.0 59.0 1.0 1.0
0.90691477 -1.2743558 1.597324 -0.10297413915395737 -0.053831350058317184 -0.9932262897491455 255.0 60.0 1.0 1.0
0.87913907 -1.2631924 1.5715437 -0.1028951033949852 -0.06654404103755951 -0.9924639463424683 247.0 60.0 1.0 1.0
0.85337412 -1.1866621 1.6060339 -0.20888538658618927 -0.06537691503763199 -0.9757523536682129 255.0 61.0 1.0 1.0
0.84712046 -1.204403 1.6178195 -0.20888538658618927 -0.06537691503763199 -0.9757523536682129 255.0 61.0 1.0 1.0
0.81257766 -1.1170573 1.6391258 -0.1519976705312729 0.35307830572128296 -0.9231643676757812 255.0 62.0 1.0 1.0
0.79487139 -1.1171805 1.626842 -0.1016484797000885 0.4408009946346283 -0.8918308019638062 255.0 62.0 1.0 1.0
0.71937543 -0.97506648 1.5602789 -0.10845135152339935 0.03192092478275299 -0.9935891628265381 229.0 63.0 1.0 1.0
0.7134552 -0.9885754 1.569717 -0.0826370045542717 0.0058776019141077995 -0.9965624213218689 253.0 63.0 1.0 1.0
4.9551783 -7.5179272 -2.2802796 0.1254170835018158 -0.9912599921226501 0.04091550037264824 8.0 22.0 2.0 1.0
5.076653 -7.7154055 -2.085357 0.18717510998249054 -0.9820937514305115 0.02138480916619301 88.0 23.0 2.0 1.0
5.1127715 -7.7806554 -1.8504943 0.2914781868457794 -0.9565346837043762 0.009036687202751637 229.0 24.0 2.0 1.0
5.1161089 -7.7990894 -1.6037192 -0.006303414236754179 -0.9976996779441833 0.0674956664443016 232.0 25.0 2.0 1.0
5.1236782 -7.8210363 -1.3596699 0.012871311977505684 -0.9996283650398254 0.024029210209846497 223.0 26.0 2.0 1.0
5.1624327 -7.7247825 -0.62760097 0.09455497562885284 -0.9945878982543945 0.043062496930360794 6.0 29.0 2.0 1.0
5.1698647 -7.740232 -0.39036208 0.13297989964485168 -0.9898094534873962 0.050926391035318375 13.0 30.0 2.0 1.0
5.1805835 -7.7606111 -0.15367505 0.2887283265590668 -0.9570350646972656 0.026828834787011147 17.0 31.0 2.0 1.0
0.42384496 -1.2379795 -1.7195178 0.11734341084957123 0.03874782472848892 0.9923352003097534 255.0 0.0 1.0 1.0
0.43678993 -1.2335277 -1.7194695 0.11734341084957123 0.03874782472848892 0.9923352003097534 255.0 0.0 1.0 1.0
0.47223938 -1.3506354 -1.7296784 0.09068816900253296 0.049110278487205505 0.9946677088737488 255.0 1.0 1.0 1.0
0.48636115 -1.3456709 -1.7296256 0.09053470939397812 0.07605793327093124 0.9929846525192261 255.0 1.0 1.0 1.0
0.52942199 -1.4894749 -1.7695192 0.12039048224687576 0.0359613299369812 0.9920750260353088 255.0 2.0 1.0 1.0
0.5431543 -1.4789031 -1.7634954 0.13870276510715485 0.035874661058187485 0.9896840453147888 255.0 2.0 1.0 1.0
0.58170348 -1.612751 -1.7819052 0.15940521657466888 0.024623533710837364 0.986906111240387 247.0 3.0 1.0 1.0
0.59759486 -1.6040291 -1.77896 0.13873007893562317 0.04059499874711037 0.9894979000091553 247.0 3.0 1.0 1.0
0.63761491 -1.7468886 -1.8009571 0.1299799084663391 0.044748418033123016 0.9905063509941101 255.0 4.0 1.0 1.0
0.65892303 -1.7482384 -1.8092359 0.13005338609218597 0.02955678477883339 0.9910663366317749 253.0 4.0 1.0 1.0
0.69721085 -1.8907413 -1.8219945 0.12585848569869995 0.013466759584844112 0.9919567704200745 238.0 5.0 1.0 1.0
0.72014874 -1.8917129 -1.8299671 0.12585848569869995 0.013466759584844112 0.9919567704200745 241.0 5.0 1.0 1.0
0.76616263 -2.0588338 -1.8573546 0.09573677182197571 0.02169809304177761 0.9951701164245605 250.0 6.0 1.0 1.0
0.78768563 -2.0507572 -1.8572739 0.09575808793306351 0.005075675901025534 0.9953916668891907 241.0 6.0 1.0 1.0
0.83145881 -2.2175817 -1.8750321 0.10857145488262177 -0.02420034073293209 0.9937940239906311 232.0 7.0 1.0 1.0
0.86030561 -2.2234366 -1.8873575 0.12530666589736938 -0.024152366444468498 0.9918240308761597 244.0 7.0 1.0 1.0
0.91879958 -2.4347184 -1.9313567 0.06265930086374283 0.03720145300030708 0.9973413348197937 255.0 8.0 1.0 1.0
0.93491662 -2.4010816 -1.9121934 0.08230666816234589 0.029883772134780884 0.9961588978767395 238.0 8.0 1.0 1.0
0.98639303 -2.5970674 -1.9335039 0.09025502949953079 0.04064643755555153 0.9950888752937317 232.0 9.0 1.0 1.0
1.020735 -2.6049979 -1.9471092 0.10272251069545746 0.0327337272465229 0.9941713213920593 232.0 9.0 1.0 1.0
1.0783911 -2.8269515 -1.9740595 0.10760067403316498 0.051802683621644974 0.9928436875343323 217.0 10.0 1.0 1.0
1.1103971 -2.8218019 -1.9783189 0.0714275911450386 0.042750194668769836 0.996529221534729 226.0 10.0 1.0 1.0
1.1826714 -3.0852118 -2.0199878 0.10080985724925995 0.021112289279699326 0.994681715965271 214.0 11.0 1.0 1.0
1.21492 -3.0727236 -2.0198667 0.10050909221172333 0.08000650256872177 0.9917141199111938 214.0 11.0 1.0 1.0
1.2888891 -3.3476985 -2.051966 0.11320603638887405 0.039091452956199646 0.9928022027015686 205.0 12.0 1.0 1.0
1.3225992 -3.3308578 -2.0498488 0.12052290886640549 0.06562383472919464 0.9905391335487366 181.0 12.0 1.0 1.0
1.4198358 -3.6755605 -2.1078765 0.1656574010848999 0.058674104511737823 0.9844363927841187 175.0 13.0 1.0 1.0
1.4556422 -3.654006 -2.1039591 0.15249429643154144 0.11775796115398407 0.9812637567520142 169.0 13.0 1.0 1.0
1.5681778 -4.0481682 -2.1682315 0.1020871102809906 0.03904416784644127 0.9940088987350464 154.0 14.0 1.0 1.0
1.6158035 -4.044888 -2.1752198 0.08906061947345734 0.01570890098810196 0.9959022402763367 133.0 14.0 1.0 1.0
1.7493924 -4.5032353 -2.248271 0.10082981735467911 0.07056194543838501 0.992398202419281 100.0 15.0 1.0 1.0
1.7991602 -4.4914756 -2.2514687 0.11172229051589966 0.04690052568912506 0.9926320910453796 85.0 15.0 1.0 1.0
3.0469167 -4.7717156 -2.4487498 0.19738350808620453 0.06400386989116669 0.9782347679138184 31.0 16.0 1.0 1.0
3.1047628 -4.7519212 -2.4549041 0.1569644659757614 0.051115263253450394 0.9862805604934692 37.0 16.0 1.0 1.0
3.4551809 -5.4245811 -2.5765095 0.1289585530757904 0.06880573183298111 0.9892600178718567 34.0 17.0 1.0 1.0
3.5260024 -5.4099617 -2.5866966 0.0833805575966835 -0.005254586227238178 0.9965039491653442 37.0 17.0 1.0 1.0
4.0756707 -6.4171042 -2.8090537 0.14704586565494537 0.08595100045204163 0.9853882193565369 35.0 18.0 1.0 1.0
3.9524581 -6.0816059 -2.6798885 0.24433459341526031 -0.9624207019805908 0.11852069944143295 61.0 18.0 1.0 1.0
4.7275405 -7.4620228 -2.997859 0.1724098175764084 -0.20937363803386688 0.9625163078308105 34.0 19.0 1.0 1.0
3.9521773 -6.0964489 -2.4655154 0.3495386838912964 -0.9360234141349792 0.041023168712854385 22.0 19.0 1.0 1.0
4.9142299 -7.7732663 -2.8516645 -0.0005960256094112992 -0.9999760389328003 0.006890138611197472 214.0 20.0 1.0 1.0
4.937253 -7.6316614 -2.8181851 -0.008069903589785099 -0.9999289512634277 -0.008773189038038254 232.0 20.0 1.0 1.0
4.9449496 -7.8386126 -2.6093407 -0.04879656806588173 -0.9915821552276611 0.11993172019720078 211.0 21.0 1.0 1.0
4.9453111 -7.6603379 -2.5667574 0.006765407044440508 -0.9991839528083801 0.03981894254684448 211.0 21.0 1.0 1.0
4.9805293 -7.9119177 -2.3683336 -0.02665812522172928 -0.9991913437843323 0.030100492760539055 214.0 22.0 1.0 1.0
4.9833016 -7.7355461 -2.330698 0.03234245628118515 -0.9992924928665161 0.01919104903936386 220.0 22.0 1.0 1.0
5.0053229 -7.9652267 -2.1247919 -0.015271480195224285 -0.9969050288200378 0.07711722701787949 208.0 23.0 1.0 1.0
5.0040307 -7.7811837 -2.0892308 -0.0023065570276230574 -0.9973362684249878 0.07290427386760712 217.0 23.0 1.0 1.0
5.0321426 -8.0188007 -1.8823626 -0.02418767474591732 -0.9975453615188599 0.0657128393650055 196.0 24.0 1.0 1.0
5.033145 -7.8369918 -1.851627 -0.013211200013756752 -0.994848370552063 0.10050950199365616 214.0 24.0 1.0 1.0
5.0563288 -8.0714293 -1.6382875 -0.06183532997965813 -0.9961580038070679 0.06201198324561119 187.0 25.0 1.0 1.0
5.0575829 -7.88867 -1.6115277 0.030312616378068924 -0.9963966012001038 0.07921427488327026 205.0 25.0 1.0 1.0
5.0826678 -8.1244984 -1.3943119 0.04839020222425461 -0.9978755116462708 0.04362121596932411 145.0 26.0 1.0 1.0
5.092752 -7.9542022 -1.373837 -0.07215884327888489 -0.9918027520179749 0.10545303672552109 205.0 26.0 1.0 1.0
5.0984726 -8.1576509 -1.1491691 0.13953787088394165 -0.9902100563049316 -0.0036238892935216427 70.0 27.0 1.0 1.0
5.1279635 -8.01686 -1.1365101 -0.02762351743876934 -0.9992590546607971 0.02680158242583275 211.0 27.0 1.0 1.0
5.1053309 -8.1797123 -0.90132219 -0.10321303457021713 -0.976884663105011 0.18719898164272308 26.0 28.0 1.0 0.0
5.1478171 -8.0587063 -0.89355034 -0.01724775694310665 -0.9984892010688782 0.05217095464468002 205.0 28.0 1.0 1.0
5.1919193 -8.3232279 -0.66366118 -0.15054091811180115 -0.9797715544700623 -0.1318531036376953 33.0 29.0 1.0 1.0
5.1907234 -8.1305122 -0.65226781 -0.01220266055315733 -0.9986656904220581 0.05017966404557228 208.0 29.0 1.0 1.0
5.1378131 -8.241272 -0.40830219 -0.10870197415351868 -0.9922515153884888 -0.06017189472913742 13.0 30.0 1.0 0.0
5.2152262 -8.1735497 -0.40729508 0.012680307030677795 -0.9978663921356201 0.06404504925012589 208.0 30.0 1.0 1.0
5.7931499 -9.2975588 -0.1814767 -0.22900299727916718 -0.9526644945144653 -0.1999700963497162 16.0 31.0 1.0 5.0
5.2406459 -8.2180672 -0.16120221 -0.03690101578831673 -0.9985414147377014 0.03941263630986214 205.0 31.0 1.0 1.0
3.6131871 -9.1956272 0.083925694 -0.12077716737985611 -0.07566716521978378 -0.9897916316986084 43.0 32.0 1.0 1.0
3.6221554 -8.9422607 0.082292616 -0.24447230994701385 -0.13083410263061523 -0.960789144039154 42.0 32.0 1.0 1.0
3.1251545 -7.96421 0.2905322 -0.14874550700187683 -0.07802294194698334 -0.9857926368713379 37.0 33.0 1.0 1.0
3.1978762 -7.9050879 0.28989187 -0.1536293625831604 -0.08244429528713226 -0.9846831560134888 43.0 33.0 1.0 1.0
2.7723207 -7.0708489 0.45178956 -0.17507830262184143 -0.040650974959135056 -0.9837149381637573 49.0 34.0 1.0 1.0
2.841712 -7.0302997 0.45135352 -0.12758518755435944 -0.11098063737154007 -0.9855989813804626 52.0 34.0 1.0 1.0
2.5235848 -6.4384012 0.5886811 -0.01202140748500824 -0.06667228043079376 -0.9977024793624878 145.0 35.0 1.0 1.0
2.5833876 -6.3931155 0.58723515 -0.02306978404521942 0.001725644338876009 -0.9997323751449585 142.0 35.0 1.0 1.0
2.2723331 -5.8051729 0.69154453 -0.12813568115234375 0.004610792268067598 -0.9917459487915039 166.0 36.0 1.0 1.0
2.3300097 -5.7736521 0.6908896 -0.11165661364793777 -0.0538809597492218 -0.9922850131988525 163.0 36.0 1.0 1.0
2.0792069 -5.3189335 0.78282374 -0.18440429866313934 -0.12161853909492493 -0.9752968549728394 193.0 37.0 1.0 1.0
2.1258864 -5.2747793 0.77976972 -0.12381422519683838 -0.0398087203502655 -0.9915065765380859 190.0 37.0 1.0 1.0
1.9344369 -4.9577785 0.86886102 -0.4456680119037628 -0.08407476544380188 -0.8912415504455566 193.0 38.0 1.0 1.0
1.9788638 -4.9188986 0.86582994 -0.4727860689163208 -0.051175374537706375 -0.8796899914741516 202.0 38.0 1.0 1.0
1.7699364 -4.5446916 0.9256708 -0.2338133305311203 0.024051858112215996 -0.9719839692115784 217.0 39.0 1.0 1.0
1.8188806 -4.5295115 0.92659593 -0.17266297340393066 -0.05350504443049431 -0.9835267066955566 217.0 39.0 1.0 1.0
1.6551231 -4.2556477 0.98983055 -0.13840174674987793 -0.10714669525623322 -0.9845631718635559 244.0 40.0 1.0 1.0
1.6879345 -4.2090154 0.98321247 -0.14758633077144623 -0.0850110724568367 -0.9853889346122742 229.0 40.0 1.0 1.0
1.5307298 -3.9452915 1.0335009 -0.15456953644752502 -0.08980537950992584 -0.9838918447494507 220.0 41.0 1.0 1.0
1.5849427 -3.9614646 1.042204 -0.12829379737377167 -0.10514645278453827 -0.9861465692520142 255.0 41.0 1.0 1.0
1.4518459 -3.7509644 1.0937321 -0.09310989081859589 -0.014262291602790356 -0.9955536723136902 255.0 42.0 1.0 1.0
1.4795765 -3.7068322 1.0854759 -0.16963408887386322 -0.06879354268312454 -0.9831030964851379 244.0 42.0 1.0 1.0
1.3793081 -3.5740185 1.1512177 -0.4170742332935333 -0.0252565648406744 -0.9085214734077454 255.0 43.0 1.0 1.0
1.3996336 -3.5166245 1.1375338 -0.5301011800765991 -0.06646998971700668 -0.8453250527381897 247.0 43.0 1.0 1.0
1.2674612 -3.2939851 1.1631947 -0.15857946872711182 -0.31080740690231323 -0.9371505975723267 226.0 44.0 1.0 1.0
1.3088812 -3.2981327 1.1695887 -0.2975624203681946 -0.18976834416389465 -0.935651957988739 250.0 44.0 1.0 1.0
1.208118 -3.1490676 1.2123793 -0.1611616313457489 -0.04945705831050873 -0.9856880903244019 255.0 45.0 1.0 1.0
1.2410113 -3.1361909 1.212503 -0.07460208982229233 0.025920772925019264 -0.9968764781951904 255.0 45.0 1.0 1.0
1.1498932 -3.0078049 1.2552323 -0.07769490033388138 -0.9785323143005371 -0.19088736176490784 247.0 46.0 1.0 1.0
1.1703652 -2.967814 1.2437207 -0.06985709071159363 -0.8356496691703796 -0.5448024868965149 255.0 46.0 1.0 1.0
1.129118 -2.9622374 1.33586 -0.0886998400092125 -0.15355436503887177 -0.9841511249542236 255.0 47.0 1.0 1.0
1.1573592 -2.9433341 1.3328677 -0.12200160324573517 -0.8615583181381226 -0.49278074502944946 255.0 47.0 1.0 1.0
1.5033795 -2.3910103 1.2872517 -0.21227604150772095 -0.08614739030599594 -0.9734051823616028 255.0 48.0 1.0 1.0
1.5204364 -2.3628411 1.2807102 -0.21280743181705475 -0.049451541155576706 -0.9758419394493103 255.0 48.0 1.0 1.0
1.4304194 -2.2703598 1.3140404 -0.11900109797716141 -0.02704462967813015 -0.9925257563591003 255.0 49.0 1.0 1.0
1.4540991 -2.2551992 1.3141332 -0.11888569593429565 -0.05165807157754898 -0.9915632009506226 255.0 49.0 1.0 1.0
1.365343 -2.1618626 1.3423251 -0.2669704854488373 -0.07047206908464432 -0.9611245393753052 255.0 50.0 1.0 1.0
1.3936594 -2.1563082 1.3479941 -0.443496435880661 -0.06554126739501953 -0.8938765525817871 255.0 50.0 1.0 1.0
1.3157115 -2.0766807 1.3811995 -0.2996930778026581 -0.08912263065576553 -0.9498637914657593 255.0 51.0 1.0 1.0
1.3430631 -2.0715039 1.387165 -0.09441116452217102 -0.09299919009208679 -0.9911799430847168 255.0 51.0 1.0 1.0
1.2596283 -1.9826787 1.4102662 -0.14601872861385345 -0.06601569056510925 -0.9870766997337341 255.0 52.0 1.0 1.0
1.280304 -1.969319 1.4103472 -0.1458248347043991 -0.08366870880126953 -0.9857659935951233 255.0 52.0 1.0 1.0
1.1803097 -1.8513588 1.4070811 -0.12246820330619812 -0.5662413835525513 -0.8150903582572937 255.0 53.0 1.0 1.0
1.2014557 -1.8416561 1.4093162 -0.14844614267349243 -0.042953405529260635 -0.9879871606826782 255.0 53.0 1.0 1.0
1.1321354 -1.768254 1.4360632 -0.20406176149845123 -0.9362804889678955 -0.2858980596065521 255.0 54.0 1.0 1.0
1.1451414 -1.7479594 1.4293582 -0.14511136710643768 -0.842782735824585 -0.518324077129364 255.0 54.0 1.0 1.0
1.1217939 -1.7446427 1.5136378 -0.1254766285419464 -0.7068607211112976 -0.6961348652839661 255.0 55.0 1.0 1.0
1.1382067 -1.7300376 1.5113504 -0.1254766285419464 -0.7068607211112976 -0.6961348652839661 255.0 55.0 1.0 1.0
1.0638621 -1.6457466 1.5259691 -0.14451493322849274 0.004255290143191814 -0.9894935488700867 255.0 56.0 1.0 1.0
1.079277 -1.6318206 1.523578 -0.14448107779026031 -0.022058675065636635 -0.9892616868019104 255.0 56.0 1.0 1.0
1.0110655 -1.5546281 1.5418062 -0.09524556249380112 -0.01903371699154377 -0.9952718019485474 255.0 57.0 1.0 1.0
1.0272714 -1.5438899 1.5418699 -0.13313782215118408 -0.016151633113622665 -0.9909658432006836 255.0 57.0 1.0 1.0
0.96581572 -1.4761454 1.5672482 -0.16198357939720154 -0.016772335395216942 -0.986650824546814 255.0 58.0 1.0 1.0
0.97287977 -1.4534678 1.5540209 -0.18562856316566467 -0.01670140027999878 -0.9824780225753784 253.0 58.0 1.0 1.0
0.90896845 -1.3789423 1.5713416 -0.11992552131414413 0.0017160560237243772 -0.992781400680542 255.0 59.0 1.0 1.0
0.92496145 -1.3716828 1.5741562 -0.11992552131414413 0.0017160560237243772 -0.992781400680542 255.0 59.0 1.0 1.0
0.86342913 -1.2977462 1.5914392 -0.09556861221790314 -0.05917365103960037 -0.9936624765396118 253.0 60.0 1.0 1.0
0.87380093 -1.2839421 1.5857757 -0.1028951033949852 -0.06654404103755951 -0.9924639463424683 255.0 60.0 1.0 1.0
0.81577241 -1.2130724 1.6058774 -0.19670362770557404 0.3420894145965576 -0.91884845495224 255.0 61.0 1.0 1.0
0.82993901 -1.2066122 1.608886 -0.20888538658618927 -0.06537691503763199 -0.9757523536682129 255.0 61.0 1.0 1.0
0.76702225 -1.1273171 1.617565 -0.009871433489024639 0.8426215648651123 -0.5384156703948975 255.0 62.0 1.0 1.0
0.78613496 -1.1297262 1.6329072 -0.17942915856838226 0.43590500950813293 -0.881925106048584 255.0 62.0 1.0 1.0
0.69825053 -1.0114906 1.582267 -0.15591935813426971 0.00306151807308197 -0.9877650737762451 255.0 63.0 1.0 1.0
0.70311987 -0.99604613 1.5696703 -0.15861263871192932 0.005823113024234772 -0.9873236417770386 255.0 63.0 1.0 1.0
4.9084897 -7.5710998 -3.0618398 0.3495386838912964 -0.9360234141349792 0.041023168712854385 160.0 19.0 2.0 1.0
11.326331 -18.119692 -2.5519197 0.13953787088394165 -0.9902100563049316 -0.0036238892935216427 12.0 27.0 2.0 1.0
6.9966483 -11.222082 -0.55580157 -0.10870197415351868 -0.9922515153884888 -0.06017189472913742 12.0 30.0 2.0 5.0
0.4108389 -1.2422922 -1.7195662 0.11734341084957123 0.03874782472848892 0.9923352003097534 255.0 0.0 1.0 1.0
0.39706561 -1.2441652 -1.7164313 0.1409369260072708 0.0254635252058506 0.9896910190582275 255.0 0.0 1.0 1.0
0.46132347 -1.3651072 -1.7420603 0.09068816900253296 0.049110278487205505 0.9946677088737488 255.0 1.0 1.0 1.0
0.44541413 -1.3649619 -1.735949 0.13877853751182556 0.048836298286914825 0.9891185164451599 255.0 1.0 1.0 1.0
0.51204205 -1.4898373 -1.7636129 0.1059061586856842 0.0419490709900856 0.9934909343719482 255.0 2.0 1.0 1.0
0.49809128 -1.5001189 -1.769637 0.1059061586856842 0.0419490709900856 0.9934909343719482 255.0 2.0 1.0 1.0
0.56293553 -1.6134564 -1.7762054 0.15453855693340302 0.0696505606174469 0.9855286478996277 250.0 3.0 1.0 1.0
0.54955548 -1.6297163 -1.7877983 0.12828600406646729 0.10053645074367523 0.9866281151771545 255.0 3.0 1.0 1.0
0.62502086 -1.7696609 -1.8177238 0.12049271911382675 0.0448024682700634 0.9917027950286865 255.0 4.0 1.0 1.0
0.60273057 -1.7651764 -1.8066618 0.11863185465335846 0.060479771345853806 0.9910946488380432 255.0 4.0 1.0 1.0
0.67835593 -1.900669 -1.8247544 0.12547187507152557 0.08135055750608444 0.9887561798095703 247.0 5.0 1.0 1.0
0.66034979 -1.9132191 -1.8301936 0.10713767260313034 0.06286021322011948 0.9922551512718201 250.0 5.0 1.0 1.0
0.73936135 -2.0523117 -1.844527 0.11743880063295364 0.04362707585096359 0.9921213388442993 232.0 6.0 1.0 1.0
0.72084492 -2.0685351 -1.8523549 0.11742854118347168 0.045583195984363556 0.9920346736907959 250.0 6.0 1.0 1.0
0.81674808 -2.249681 -1.8949856 0.11110113561153412 0.05294353514909744 0.9923977851867676 250.0 7.0 1.0 1.0
0.78585589 -2.2373405 -1.8776934 0.11113621294498444 0.046620674431324005 0.9927111268043518 241.0 7.0 1.0 1.0
0.87668198 -2.3988888 -1.8957022 0.06265930086374283 0.03720145300030708 0.9973413348197937 232.0 8.0 1.0 1.0
0.85472459 -2.416961 -1.9029474 0.0857977420091629 0.04424254596233368 0.9953297972679138 238.0 8.0 1.0 1.0
0.9613986 -2.6133466 -1.9381819 0.05864851921796799 0.04074275493621826 0.9974468946456909 232.0 9.0 1.0 1.0
0.92846286 -2.6077459 -1.9268594 0.04453975334763527 0.05546132102608681 0.9974669814109802 229.0 9.0 1.0 1.0
1.047554 -2.8348753 -1.9719925 0.10898564010858536 0.04979008436203003 0.9927955865859985 229.0 10.0 1.0 1.0
1.0178047 -2.8456264 -1.9721034 0.04672020673751831 0.03476918488740921 0.9983027577400208 226.0 10.0 1.0 1.0
1.1395842 -3.0685627 -2.0013418 0.10393226146697998 0.0038266186602413654 0.9945769906044006 211.0 11.0 1.0 1.0
1.1108493 -3.0898972 -2.0077207 0.1061728224158287 0.04249434173107147 0.9934391975402832 217.0 11.0 1.0 1.0
1.2513227 -3.35443 -2.0481358 0.12459789216518402 0.039583541452884674 0.991417407989502 193.0 12.0 1.0 1.0
1.2090389 -3.3476915 -2.0363507 0.09745124727487564 0.0121154161170125 0.995166540145874 190.0 12.0 1.0 1.0
1.3738351 -3.6703305 -2.0967124 0.1729956567287445 0.05896403640508652 0.9831559658050537 178.0 13.0 1.0 1.0
1.336521 -3.6877637 -2.0987427 0.1207849532365799 0.07763879001140594 0.9896379113197327 166.0 13.0 1.0 1.0
1.5219162 -4.0542359 -2.1630423 0.10290763527154922 0.03444359451532364 0.9940943717956543 139.0 14.0 1.0 1.0
1.4818174 -4.0766068 -2.1667755 0.10980511456727982 0.0466860830783844 0.9928560853004456 151.0 14.0 1.0 1.0
1.6944613 -4.5008593 -2.2383378 0.14582812786102295 0.06512349843978882 0.9871641397476196 79.0 15.0 1.0 1.0
1.6397728 -4.4978418 -2.2283881 0.11225864291191101 0.07508101314306259 0.9908384680747986 82.0 15.0 1.0 1.0
2.9948275 -4.8001442 -2.4473939 0.16078241169452667 0.07908222079277039 0.9838165640830994 31.0 16.0 1.0 1.0
2.9233658 -4.79668 -2.4301233 0.15072505176067352 0.06719409674406052 0.9862894415855408 19.0 16.0 1.0 1.0
3.4060283 -5.4729643 -2.5827229 0.08800658583641052 0.04738747701048851 0.9949920773506165 34.0 17.0 1.0 1.0
3.3253694 -5.4701748 -2.5650969 0.1207880899310112 0.05609642714262009 0.9910920262336731 34.0 17.0 1.0 1.0
3.9924138 -6.4338064 -2.7982757 0.11289119720458984 0.059407394379377365 0.9918297529220581 36.0 18.0 1.0 1.0
3.9189744 -6.4655428 -2.7943792 0.14536447823047638 -0.0025947256945073605 0.9893748164176941 35.0 18.0 1.0 1.0
4.7149405 -7.6172609 -3.0406413 0.0911368727684021 0.033161964267492294 0.9952861070632935 36.0 19.0 1.0 1.0
4.6231422 -7.6466675 -3.0332394 0.13674063980579376 0.06363994628190994 0.9885604977607727 37.0 19.0 1.0 1.0
4.9048529 -7.9411821 -2.8946903 -0.24687694013118744 -0.9588627815246582 0.14012151956558228 157.0 20.0 1.0 1.0
4.8687892 -8.0705166 -2.9234488 0.005987172946333885 -0.6185073852539062 0.7857562303543091 32.0 20.0 1.0 1.0
4.939384 -8.0143909 -2.650913 -0.25367471575737 -0.9640834331512451 0.07869107276201248 130.0 21.0 1.0 1.0
4.9583678 -8.0626059 -2.3981848 -0.28395360708236694 -0.9576661586761475 0.04738977551460266 82.0 22.0 1.0 1.0
10.946665 -17.828922 -4.7255387 -0.09376981854438782 -0.9078036546707153 -0.4087783992290497 7.0 23.0 1.0 5.0
10.987748 -17.920452 -4.1797991 0.010528555139899254 -0.9957140684127808 0.09188396483659744 16.0 24.0 1.0 5.0
10.747057 -17.946878 -4.1602473 -0.04811690375208855 -0.9946610927581787 0.09129045903682709 17.0 24.0 1.0 5.0
11.010061 -17.988594 -3.627902 -0.030536765232682228 -0.9994565844535828 0.012414870783686638 17.0 25.0 1.0 5.0
10.784662 -18.041872 -3.61643 0.002642774721607566 -0.9986355304718018 0.05215434730052948 18.0 25.0 1.0 5.0
5.2347693 -8.565589 -1.4609261 0.03096468187868595 -0.9955934286117554 0.08851508051156998 28.0 26.0 1.0 1.0
5.2360916 -8.7728319 -1.4871935 -0.008227020502090454 -0.9915450215339661 0.12950195372104645 28.0 26.0 1.0 1.0
11.044922 -18.088034 -2.5318615 -0.053743090480566025 -0.99738609790802 -0.04829757288098335 14.0 27.0 1.0 5.0
10.832519 -18.165094 -2.5273798 -0.05193448066711426 -0.9962441921234131 0.06928431987762451 13.0 27.0 1.0 5.0
5.3120146 -8.9211912 -0.97130799 0.05465575307607651 -0.9868386387825012 -0.15219144523143768 13.0 28.0 1.0 2.0
5.2810822 -8.6667471 -0.68700719 -0.046792976558208466 -0.9892327189445496 -0.13866889476776123 25.0 29.0 1.0 1.0
5.2982249 -8.9033127 -0.70167255 0.08452028036117554 -0.990671694278717 -0.10689187794923782 24.0 29.0 1.0 2.0
6.9598761 -11.427808 -0.56285334 0.13567227125167847 -0.9808000326156616 0.14008645713329315 11.0 30.0 1.0 5.0
6.9746809 -11.72674 -0.57441127 -0.07634931802749634 -0.9698265790939331 -0.2315322458744049 11.0 30.0 1.0 5.0
5.8036928 -9.5353107 -0.18537046 -0.27937349677085876 -0.8858962655067444 -0.3703218996524811 20.0 31.0 1.0 5.0
5.8098087 -9.7743282 -0.18920797 -0.01539583783596754 -0.9753298759460449 -0.22021494805812836 23.0 31.0 1.0 5.0
3.5238988 -9.2516279 0.08369904 -0.14393846690654755 -0.01540722418576479 -0.9894667267799377 42.0 32.0 1.0 1.0
3.4420669 -9.3293114 0.083709992 -0.1559433937072754 -0.10904470086097717 -0.9817285537719727 43.0 32.0 1.0 1.0
3.0558808 -8.0338545 0.29154807 -0.14354275166988373 0.0020291637629270554 -0.9896420836448669 31.0 33.0 1.0 1.0
2.9757414 -8.0766869 0.29164073 -0.22195051610469818 -0.02855857089161873 -0.9746396541595459 38.0 33.0 1.0 1.0
2.7081342 -7.1256175 0.45314935 -0.07136418670415878 0.00895024836063385 -0.9974101781845093 34.0 34.0 1.0 1.0
2.6347582 -7.1573586 0.45310792 -0.05035562813282013 -0.04604111611843109 -0.9976694583892822 16.0 34.0 1.0 1.0
2.4518514 -6.4533033 0.58738595 -0.14700494706630707 0.007884710095822811 -0.9891042709350586 148.0 35.0 1.0 1.0
2.3841507 -6.4786553 0.58713329 -0.056581996381282806 -0.031110042706131935 -0.997913122177124 118.0 35.0 1.0 1.0
2.2157218 -5.8398123 0.6926195 -0.09009690582752228 -0.04355678707361221 -0.9949800372123718 148.0 36.0 1.0 1.0
2.1558325 -5.8664603 0.69283205 -0.1244967058300972 -0.06595565378665924 -0.9900254607200623 118.0 36.0 1.0 1.0
2.0304878 -5.3589592 0.78531384 -0.17139014601707458 -0.010540129616856575 -0.9851468205451965 172.0 37.0 1.0 1.0
1.9756385 -5.3836851 0.78564739 -0.1690240204334259 -0.16591721773147583 -0.9715463519096375 166.0 37.0 1.0 1.0
1.8741006 -4.9556313 0.86477989 -0.23771941661834717 -0.05170566588640213 -0.9699566960334778 184.0 38.0 1.0 1.0
1.8289099 -4.9935579 0.86780965 -0.16236911714076996 -0.07343064248561859 -0.9839940071105957 199.0 38.0 1.0 1.0
1.7348124 -4.596087 0.93219358 -0.24144886434078217 -0.10803104937076569 -0.9643815159797668 229.0 39.0 1.0 1.0
1.6839019 -4.6066628 0.93052143 -0.24499912559986115 -0.03007001057267189 -0.9690568447113037 205.0 39.0 1.0 1.0
1.6050165 -4.2581429 0.98625803 -0.12150297313928604 -0.04748907685279846 -0.9914543628692627 214.0 40.0 1.0 1.0
1.5603523 -4.2747622 0.98609143 -0.12137985974550247 -0.06539338082075119 -0.9904496669769287 199.0 40.0 1.0 1.0
1.5030816 -3.9975014 1.0428283 -0.1465943604707718 -0.052034445106983185 -0.9878271818161011 247.0 41.0 1.0 1.0
1.462483 -4.0167198 1.0436212 -0.14660730957984924 -0.05031079053878784 -0.987914502620697 241.0 41.0 1.0 1.0
1.417979 -3.7804475 1.0977736 -0.09284357726573944 -0.07690666615962982 -0.9927061200141907 255.0 42.0 1.0 1.0
1.3664614 -3.7624898 1.0881759 -0.07684687525033951 -0.0010002295020967722 -0.9970422983169556 235.0 42.0 1.0 1.0
1.3378435 -3.577538 1.1476114 -0.3251858651638031 -0.02801363356411457 -0.9452351927757263 255.0 43.0 1.0 1.0
1.2924925 -3.5697927 1.1405619 -0.3242951035499573 -0.07906512171030045 -0.9426459670066833 255.0 43.0 1.0 1.0
1.24093 -3.3284674 1.1705716 -0.19681812822818756 -0.10408346354961395 -0.9748996496200562 232.0 44.0 1.0 1.0
1.226675 -3.3984962 1.1904817 -0.16250376403331757 0.027596576139330864 -0.9863219261169434 253.0 44.0 1.0 1.0
1.1817014 -3.1792226 1.2190151 -0.07792916893959045 -0.9106590747833252 -0.4057425856590271 255.0 45.0 1.0 1.0
1.1598393 -3.2233481 1.2310728 -0.07721087336540222 -0.9712257981300354 -0.22529764473438263 250.0 45.0 1.0 1.0
1.1598505 -3.1315353 1.3016157 -0.09411386400461197 -0.7299894690513611 -0.6769475340843201 255.0 46.0 1.0 1.0
1.1333042 -3.1611037 1.30876 -0.15912072360515594 -0.15031541883945465 -0.9757488965988159 255.0 46.0 1.0 1.0
1.1032134 -2.9877698 1.3419515 -0.08963636308908463 -0.05339571461081505 -0.994542121887207 255.0 47.0 1.0 1.0
1.0706406 -2.9957461 1.340281 -0.13544481992721558 -0.003690933808684349 -0.9907780289649963 255.0 47.0 1.0 1.0
1.478319 -2.4066603 1.2871381 -0.1869346648454666 -0.0712725967168808 -0.9797834753990173 255.0 48.0 1.0 1.0
1.4511791 -2.4189439 1.2853806 -0.15763916075229645 -0.07742305845022202 -0.9844570159912109 255.0 48.0 1.0 1.0
1.400974 -2.2760785 1.3086532 -0.1271137297153473 -0.027017228305339813 -0.9915201663970947 255.0 49.0 1.0 1.0
1.3881912 -2.3091483 1.3191186 -0.12688381969928741 -0.06588838994503021 -0.9897268414497375 255.0 49.0 1.0 1.0
1.342689 -2.1760824 1.3422226 -0.2595597803592682 0.0034018855076283216 -0.965721070766449 255.0 50.0 1.0 1.0
1.3235028 -2.196146 1.3458536 -0.2170725017786026 -0.05851633846759796 -0.9744000434875488 255.0 50.0 1.0 1.0
1.2939526 -2.0903871 1.3811013 -0.35838279128074646 -0.09072934836149216 -0.9291554689407349 255.0 51.0 1.0 1.0
1.284647 -2.1247637 1.3947346 -0.42370447516441345 -0.01388189010322094 -0.9056941270828247 255.0 51.0 1.0 1.0
1.2388573 -1.9958042 1.4101723 -0.10912362486124039 -0.028590504080057144 -0.9936169385910034 255.0 52.0 1.0 1.0
1.2214651 -2.014591 1.41421 -0.15579287707805634 -0.13757407665252686 -0.9781625866889954 255.0 52.0 1.0 1.0
1.1573529 -1.8579471 1.4026757 0.2165774554014206 -0.5943012237548828 -0.7745322585105896 255.0 53.0 1.0 1.0
1.1396027 -1.8729002 1.4047588 0.3017473518848419 -0.6843125820159912 -0.6638258695602417 250.0 53.0 1.0 1.0
1.146909 -1.8332139 1.4788982 -0.04210987314581871 -0.9305995106697083 -0.3636086881160736 255.0 54.0 1.0 1.0
1.1414497 -1.8677143 1.4968933 -0.02516970783472061 -0.5562334060668945 -0.8306448459625244 255.0 54.0 1.0 1.0
1.1018031 -1.7536081 1.5111969 -0.08603966236114502 -0.05121593177318573 -0.9949743747711182 255.0 55.0 1.0 1.0
1.0749398 -1.7513508 1.4993328 -0.08603966236114502 -0.05121593177318573 -0.9949743747711182 255.0 55.0 1.0 1.0
1.0449431 -1.6541795 1.5234333 -0.14654795825481415 0.0063322922214865685 -0.9891833066940308 255.0 56.0 1.0 1.0
1.0275815 -1.6650954 1.5233656 -0.1948833167552948 -0.012848797254264355 -0.9807422757148743 255.0 56.0 1.0 1.0
0.99148816 -1.5599917 1.5366173 -0.09524556249380112 -0.01903371699154377 -0.9952718019485474 253.0 57.0 1.0 1.0
0.98648286 -1.5886354 1.5544578 -0.09526055306196213 0.0068944040685892105 -0.9954285025596619 255.0 57.0 1.0 1.0
0.95036465 -1.4862298 1.5671788 -0.1616784781217575 -0.06359359622001648 -0.9847924113273621 255.0 58.0 1.0 1.0
0.92208129 -1.475889 1.5458599 -0.1616784781217575 -0.06359359622001648 -0.9847924113273621 247.0 58.0 1.0 1.0
0.89453769 -1.3884373 1.5712769 -0.10066249966621399 -0.03728361427783966 -0.9942218065261841 250.0 59.0 1.0 1.0
0.887694 -1.4100494 1.5850084 -0.11762481927871704 -0.05441521853208542 -0.9915661811828613 255.0 59.0 1.0 1.0
0.84832406 -1.304425 1.5885202 -0.12300998717546463 -0.006429681088775396 -0.992384672164917 255.0 60.0 1.0 1.0
0.83012813 -1.3062212 1.5798924 -0.12300998717546463 -0.006429681088775396 -0.992384672164917 253.0 60.0 1.0 1.0
0.8030836 -1.2216022 1.6058205 -0.19670362770557404 0.3420894145965576 -0.91884845495224 255.0 61.0 1.0 1.0
0.79026544 -1.2300123 1.6057703 -0.19670362770557404 0.3420894145965576 -0.91884845495224 255.0 61.0 1.0 1.0
0.71664417 -1.0774317 1.5349215 -0.13002866506576538 0.07059096544981003 -0.9889941811561584 232.0 62.0 1.0 1.0
0.71096712 -1.0935811 1.5471126 -0.09635929763317108 0.03658018633723259 -0.9946742653846741 250.0 62.0 1.0 1.0
0.68217981 -1.0106728 1.5695822 -0.15554660558700562 -0.06917477399110794 -0.9854035973548889 255.0 63.0 1.0 1.0
0.67698854 -1.026013 1.582178 -0.15554660558700562 -0.06917477399110794 -0.9854035973548889 255.0 63.0 1.0 1.0
0.37159064 -1.2544178 -1.7197106 0.09106485545635223 0.025612177327275276 0.9955155849456787 255.0 0.0 1.0 1.0
0.38542429 -1.2528262 -1.7228458 0.09106485545635223 0.025612177327275276 0.9955155849456787 255.0 0.0 1.0 1.0
0.41448426 -1.3665605 -1.7268076 0.11616981029510498 0.01681067794561386 0.993087112903595 255.0 1.0 1.0 1.0
0.43031058 -1.3670616 -1.7329197 0.11616981029510498 0.01681067794561386 0.993087112903595 255.0 1.0 1.0 1.0
0.46260387 -1.4973785 -1.7548376 0.13088597357273102 0.07004056125879288 0.9889202117919922 255.0 2.0 1.0 1.0
0.47907782 -1.4950444 -1.7577631 0.10589315742254257 0.044774625450372696 0.993368923664093 255.0 2.0 1.0 1.0
0.5144515 -1.6381049 -1.7850435 0.12864282727241516 0.06777260452508926 0.9893724918365479 255.0 3.0 1.0 1.0
0.53072155 -1.6300477 -1.7820977 0.12864282727241516 0.06777260452508926 0.9893724918365479 253.0 3.0 1.0 1.0
0.56473815 -1.774555 -1.8040178 0.11879777908325195 0.029474737122654915 0.9924808144569397 253.0 4.0 1.0 1.0
0.58059019 -1.7604163 -1.795601 0.11863185465335846 0.060479771345853806 0.9910946488380432 250.0 4.0 1.0 1.0
0.61920708 -1.9236834 -1.827662 0.13538749516010284 0.04087444022297859 0.9899492859840393 253.0 5.0 1.0 1.0
0.63744223 -1.9115232 -1.8222225 0.10730591416358948 0.02864645980298519 0.9938132762908936 244.0 5.0 1.0 1.0
0.67545551 -2.0772452 -1.8473533 0.11686047166585922 0.0511511005461216 0.9918302297592163 238.0 6.0 1.0 1.0
0.69912827 -2.0759053 -1.8524386 0.11686047166585922 0.0511511005461216 0.9918302297592163 247.0 6.0 1.0 1.0
0.73391753 -2.2382843 -1.865456 0.12437348067760468 0.07250364869832993 0.9895829558372498 235.0 7.0 1.0 1.0
0.75732154 -2.2305353 -1.8653696 0.12340198457241058 0.03263559937477112 0.9918199777603149 229.0 7.0 1.0 1.0
0.80491036 -2.4372523 -1.9055243 0.0732003003358841 0.026966145262122154 0.9969526529312134 244.0 8.0 1.0 1.0
0.83039373 -2.4287503 -1.9054303 0.08581430464982986 0.03964648395776749 0.9955219626426697 241.0 8.0 1.0 1.0
0.87881529 -2.6420619 -1.9384937 0.1009662076830864 0.041302409023046494 0.9940322041511536 244.0 9.0 1.0 1.0
0.90430039 -2.6265686 -1.9338217 0.10095696151256561 0.04345811530947685 0.9939411878585815 238.0 9.0 1.0 1.0
0.95584428 -2.8598297 -1.9679594 0.16295436024665833 0.07205464690923691 0.9839990139007568 229.0 10.0 1.0 1.0
0.98574489 -2.8497264 -1.967849 0.04390964284539223 -0.004621854051947594 0.9990248084068298 226.0 10.0 1.0 1.0
1.0491438 -3.1220493 -2.0142288 0.11159931868314743 0.051209330558776855 0.9924329519271851 226.0 11.0 1.0 1.0
1.0728111 -3.0851719 -1.9974165 0.111708864569664 0.025754515081644058 0.9934071898460388 208.0 11.0 1.0 1.0
1.1386501 -3.3721375 -2.0366201 0.060149841010570526 0.025248300284147263 0.9978699684143066 196.0 12.0 1.0 1.0
1.1750518 -3.3633721 -2.038476 0.08645068109035492 0.05280182138085365 0.9948558211326599 199.0 12.0 1.0 1.0
1.2578501 -3.7114589 -2.0971529 0.14145970344543457 0.04526910185813904 0.9889084100723267 190.0 13.0 1.0 1.0
1.2989895 -3.704807 -2.1007833 0.09840910881757736 0.04111257195472717 0.9942964315414429 178.0 13.0 1.0 1.0
1.3845794 -4.0727172 -2.1492295 0.08108538389205933 0.04266956448554993 0.995793342590332 142.0 14.0 1.0 1.0
1.4390395 -4.0918188 -2.1669459 0.09324594587087631 0.037734102457761765 0.9949278235435486 163.0 14.0 1.0 1.0
1.5440334 -4.5276074 -2.2270637 0.07613502442836761 0.023278992623090744 0.9968257546424866 97.0 15.0 1.0 1.0
1.5949903 -4.5215216 -2.2319522 0.14018525183200836 0.09031786024570465 0.9859974384307861 115.0 15.0 1.0 1.0
2.8259447 -4.8630176 -2.4337244 0.18790535628795624 0.10994499176740646 0.9760141372680664 37.0 16.0 1.0 1.0
2.8823583 -4.842701 -2.438293 0.1424989402294159 0.06179780513048172 0.9878639578819275 43.0 16.0 1.0 1.0
3.2510405 -5.6090903 -2.5983124 0.09051456302404404 0.017728030681610107 0.9957373142242432 34.0 17.0 1.0 1.0
3.3096097 -5.5748239 -2.5980868 0.16508010029792786 0.08116715401411057 0.9829345345497131 34.0 17.0 1.0 1.0
3.7676766 -6.5199971 -2.7838585 0.16582851111888885 0.020903155207633972 0.9859330654144287 35.0 18.0 1.0 1.0
3.8472273 -6.4996481 -2.7919161 0.1079224944114685 0.05125386640429497 0.9928372502326965 36.0 18.0 1.0 1.0
4.4903541 -7.7907958 -3.0532053 0.137542262673378 0.04435809329152107 0.9895021319389343 43.0 19.0 1.0 1.0
4.5774822 -7.7532334 -3.0567491 0.12547120451927185 0.0005883450503461063 0.9920970797538757 39.0 19.0 1.0 1.0
4.7863269 -8.3228168 -2.9786768 0.045239657163619995 -0.15936625003814697 0.9861823916435242 35.0 20.0 1.0 1.0
4.8596559 -8.2492962 -2.970048 -0.015976808965206146 -0.4782964587211609 0.8780530691146851 34.0 20.0 1.0 1.0
10.214725 -17.872093 -4.6520424 -0.013546440750360489 -0.9810605645179749 -0.19322676956653595 9.0 23.0 1.0 5.0
10.474288 -17.888882 -4.683939 -0.04537629336118698 -0.9832314848899841 -0.17662598192691803 9.0 23.0 1.0 5.0
10.269699 -17.993885 -4.1220403 -0.013233070261776447 -0.9982876181602478 0.056979406625032425 16.0 24.0 1.0 5.0
10.515012 -17.983711 -4.1439457 0.027442006394267082 -0.9969685077667236 0.07280629873275757 17.0 24.0 1.0 5.0
10.287416 -18.057945 -3.5773261 0.05298018082976341 -0.9975971579551697 0.04464354366064072 18.0 25.0 1.0 5.0
10.525648 -18.03446 -3.5935585 -0.027468055486679077 -0.999622642993927 7.149865268729627e-05 19.0 25.0 1.0 5.0
5.2274275 -9.190073 -1.5398329 0.028878433629870415 -0.9993796348571777 0.020157717168331146 27.0 26.0 1.0 1.0
5.2217202 -8.9604683 -1.5100822 0.02211746759712696 -0.9926944971084595 0.1186106950044632 28.0 26.0 1.0 1.0
10.312423 -18.146017 -2.4957554 0.0034671758767217398 -0.9994760155677795 -0.03218158707022667 14.0 27.0 1.0 5.0
10.585831 -18.181271 -2.5149634 -0.06261587888002396 -0.9978335499763489 -0.020186008885502815 14.0 27.0 1.0 5.0
5.3108315 -9.3594303 -1.0074971 -0.02138686366379261 -0.9994754195213318 0.024317877367138863 20.0 28.0 1.0 1.0
5.3004422 -9.1174173 -0.9870072 -0.0029219379648566246 -0.9688130021095276 -0.24777579307556152 15.0 28.0 1.0 2.0
5.3193874 -9.3802013 -0.73111641 0.031912911683321 -0.7957925796508789 0.6047278046607971 19.0 29.0 1.0 2.0
5.3110437 -9.1411238 -0.7164194 -0.012306289747357368 -0.9702306985855103 0.24186961352825165 23.0 29.0 1.0 2.0
5.8542967 -10.335749 -0.19853437 -0.03965725749731064 -0.9676022529602051 -0.24934595823287964 26.0 31.0 1.0 5.0
5.8136301 -10.017912 -0.1931998 -0.01458769291639328 -0.9783490300178528 -0.2064470499753952 24.0 31.0 1.0 5.0
3.2238245 -9.3350735 0.082378462 -0.22534430027008057 -0.023451540619134903 -0.9739968776702881 42.0 32.0 1.0 1.0
3.3671422 -9.4288607 0.083887652 -0.12078956514596939 -0.017491865903139114 -0.9925239682197571 41.0 32.0 1.0 1.0
2.8255894 -8.1939354 0.29301548 -0.10793887823820114 -0.048210568726062775 -0.9929879307746887 39.0 33.0 1.0 1.0
2.8924232 -8.1111631 0.29143372 -0.17642737925052643 -0.10048682987689972 -0.9791709184646606 39.0 33.0 1.0 1.0
2.5182061 -7.3091435 0.45869508 -0.12593549489974976 0.0066963373683393 -0.9920157790184021 46.0 34.0 1.0 1.0
2.5785084 -7.2372141 0.45612857 -0.1329798847436905 -0.10637333989143372 -0.9853938221931458 46.0 34.0 1.0 1.0
2.2584233 -6.5573473 0.58931965 -0.1110384538769722 -0.06415395438671112 -0.991743266582489 91.0 35.0 1.0 1.0
2.3082247 -6.4807477 0.58482409 -0.14396792650222778 -0.07515556365251541 -0.9867243766784668 58.0 35.0 1.0 1.0
2.0532837 -5.9705181 0.6994096 -0.028904693201184273 0.02637973614037037 -0.9992340207099915 133.0 36.0 1.0 1.0
2.1010184 -5.907454 0.69478941 -0.16733968257904053 0.026160305365920067 -0.9855521321296692 130.0 36.0 1.0 1.0
1.8702673 -5.4464216 0.78846961 -0.1404900997877121 -0.0829949676990509 -0.9865973591804504 160.0 37.0 1.0 1.0
1.9298397 -5.4339695 0.78976655 -0.18649932742118835 -0.054635558277368546 -0.980934739112854 181.0 37.0 1.0 1.0
1.7252946 -5.0345607 0.86804974 -0.11871495842933655 -0.0717695876955986 -0.99033123254776 199.0 38.0 1.0 1.0
1.7739487 -5.0050159 0.86631048 -0.02037084475159645 -0.07125464826822281 -0.9972500801086426 187.0 38.0 1.0 1.0
1.6024096 -4.6856031 0.93909889 -0.49297264218330383 -0.02287476882338524 -0.869744062423706 214.0 39.0 1.0 1.0
1.6448179 -4.6499996 0.93554997 0.014968148432672024 -0.08433947712182999 -0.9963246583938599 220.0 39.0 1.0 1.0
1.4832088 -4.3435659 0.99422032 -0.16409353911876678 -0.07042298465967178 -0.9839277863502502 232.0 40.0 1.0 1.0
1.5194788 -4.3019509 0.98845506 -0.12248986214399338 -0.02115820161998272 -0.9922441840171814 208.0 40.0 1.0 1.0
1.3793774 -4.0502219 1.0442461 -0.11865270882844925 -0.007242600899189711 -0.9929093718528748 229.0 41.0 1.0 1.0
1.4217001 -4.0355082 1.0444025 -0.11822182685136795 -0.08545198291540146 -0.9893035888671875 241.0 41.0 1.0 1.0
1.2949007 -3.8122888 1.0941708 -0.14481478929519653 -0.05620451644062996 -0.9878612160682678 250.0 42.0 1.0 1.0
1.3398572 -3.8130367 1.0985172 -0.07678519934415817 -0.04007295146584511 -0.996242105960846 255.0 42.0 1.0 1.0
1.2175298 -3.596163 1.1402746 -0.30305370688438416 -0.028314460068941116 -0.9525527358055115 253.0 43.0 1.0 1.0
1.2665111 -3.6157007 1.1507763 -0.33310234546661377 0.018876846879720688 -0.9427016973495483 255.0 43.0 1.0 1.0
1.1869221 -3.5171077 1.2227662 -0.16931241750717163 -0.6611666679382324 -0.7308842539787292 255.0 44.0 1.0 1.0
1.1923381 -3.414778 1.1915929 -0.1905934363603592 -0.22256067395210266 -0.9561071991920471 250.0 44.0 1.0 1.0
1.131797 -3.3647466 1.2754716 -0.1320938766002655 -0.16930438578128815 -0.9766714572906494 255.0 45.0 1.0 1.0
1.1731453 -3.3704276 1.2823683 0.12649887800216675 -0.6839447617530823 -0.7184828519821167 255.0 45.0 1.0 1.0
1.0716776 -3.1983759 1.3143183 -0.1418214738368988 0.005513233598321676 -0.9898769855499268 255.0 46.0 1.0 1.0
1.0940959 -3.155236 1.3013633 -0.17977887392044067 0.1035529375076294 -0.978241503238678 255.0 46.0 1.0 1.0
1.0007378 -2.9966369 1.3307198 -0.04136519134044647 -0.005145370028913021 -0.9991307854652405 255.0 47.0 1.0 1.0
1.034456 -2.9929028 1.3339427 -0.041359368711709976 0.017553694546222687 -0.9989901185035706 255.0 47.0 1.0 1.0
1.4075096 -2.4615345 1.2918059 -0.18199890851974487 -0.07090595364570618 -0.9807388782501221 255.0 48.0 1.0 1.0
1.4258292 -2.4340458 1.2852676 -0.1133226528763771 -0.13464027643203735 -0.9843931794166565 253.0 48.0 1.0 1.0
1.3378168 -2.3346946 1.3171576 -0.15048553049564362 -0.031300488859415054 -0.9881166219711304 255.0 49.0 1.0 1.0
1.3658142 -2.3266952 1.3207704 -0.13487492501735687 -0.06581830978393555 -0.9886742830276489 255.0 49.0 1.0 1.0
1.2755309 -2.2204106 1.3438025 -0.07710043340921402 -0.09494461864233017 -0.9924923181533813 255.0 50.0 1.0 1.0
1.2951009 -2.2007713 1.3401722 -0.2173406183719635 0.030999967828392982 -0.975603461265564 255.0 50.0 1.0 1.0
1.2382016 -2.1482842 1.3925897 -0.478516548871994 -0.20880751311779022 -0.8528899550437927 255.0 51.0 1.0 1.0
1.2641612 -2.141145 1.3965952 -0.45477816462516785 -0.009606692008674145 -0.8905528783798218 255.0 51.0 1.0 1.0
1.1790838 -2.0398343 1.4140344 -0.0981183648109436 -0.669283390045166 -0.736500084400177 255.0 52.0 1.0 1.0
1.1933682 -2.0155158 1.4058788 -0.15579287707805634 -0.13757407665252686 -0.9781625866889954 255.0 52.0 1.0 1.0
1.1543263 -1.9896458 1.4736708 -0.17760848999023438 -0.2969025671482086 -0.9382452368736267 255.0 53.0 1.0 1.0
1.1664721 -1.9629163 1.4629573 -0.006928529590368271 -0.7177520990371704 -0.6962642669677734 255.0 53.0 1.0 1.0
1.0971724 -1.8827658 1.4899551 -0.08691977709531784 -0.07154475897550583 -0.993643045425415 255.0 54.0 1.0 1.0
1.1168098 -1.8711107 1.4900306 -0.08691977709531784 -0.07154475897550583 -0.993643045425415 255.0 54.0 1.0 1.0
1.0381037 -1.7735904 1.4991802 -0.12334015220403671 -0.02331325225532055 -0.9920905232429504 255.0 55.0 1.0 1.0
1.0665774 -1.7791805 1.5134016 -0.08612912148237228 -0.02340533398091793 -0.9960090517997742 255.0 55.0 1.0 1.0
0.99576706 -1.6918018 1.5281365 -0.1771068274974823 -0.024241678416728973 -0.9838930368423462 255.0 56.0 1.0 1.0
1.0068879 -1.6704104 1.5183725 -0.1771068274974823 -0.024241678416728973 -0.9838930368423462 253.0 56.0 1.0 1.0
0.94522989 -1.5958364 1.5415318 -0.12196029722690582 -0.01974949985742569 -0.9923384785652161 255.0 57.0 1.0 1.0
0.96666032 -1.5936723 1.5492688 -0.12198121845722198 0.006874180864542723 -0.9925086498260498 255.0 57.0 1.0 1.0
0.89564413 -1.5026947 1.5537027 -0.15433375537395477 -0.083920918405056 -0.9844483137130737 255.0 58.0 1.0 1.0
0.91443092 -1.4982706 1.5590774 -0.1616784781217575 -0.06359359622001648 -0.9847924113273621 253.0 58.0 1.0 1.0
