ply
format ascii 1.0
element vertex 417
property float x
property float y
property float z
property float nx
property float ny
property float nz
property float intensity
property float ring
property float return
property float label
end_header
-0.97449768 0.32439452 -0.043451995 0.011133813299238682 0.999635636806488 -0.024591367691755295 255.0 30.0 1.0 1.0
-0.97402382 0.31295052 -0.043253273 -0.042943790555000305 0.9963842630386353 -0.07330847531557083 255.0 30.0 1.0 1.0
-0.97142982 0.32344717 -0.017235581 -0.009224816225469112 0.9972618818283081 -0.07337304204702377 255.0 31.0 1.0 1.0
-0.95951539 0.30837673 -0.016929619 -0.042943790555000305 0.9963842630386353 -0.07330847531557083 255.0 31.0 1.0 1.0
-0.98437506 0.54300117 0.0093695233 -0.005150965414941311 0.9985812306404114 -0.05299966782331467 255.0 32.0 1.0 1.0
-0.96884823 0.52131069 0.0092124715 -0.005150965414941311 0.9985812306404114 -0.05299966782331467 255.0 32.0 1.0 1.0
-0.95562196 0.52769685 0.036920123 -0.0029810413252562284 0.9992724657058716 -0.03802241384983063 255.0 33.0 1.0 1.0
-0.95756054 0.51576442 0.036816377 -0.013840151019394398 0.9998892545700073 -0.00547407753765583 255.0 33.0 1.0 1.0
-0.98235351 0.54272676 0.066593379 -0.0029821551870554686 0.9996458888053894 -0.026440203189849854 255.0 34.0 1.0 1.0
-0.97390026 0.52484316 0.065684095 -0.0029810413252562284 0.9992724657058716 -0.03802241384983063 255.0 34.0 1.0 1.0
-0.98052412 0.54180264 0.095200017 -0.0017234738916158676 0.9992262125015259 -0.039293743669986725 255.0 35.0 1.0 1.0
-0.97910815 0.52772528 0.094556764 -0.0026220574509352446 0.9992242455482483 -0.039293669164180756 255.0 35.0 1.0 1.0
-0.9534933 0.52742088 0.12073426 -0.0007365967612713575 0.9996401071548462 -0.026815420016646385 255.0 36.0 1.0 1.0
-0.94494402 0.50986594 0.11900973 -0.013594134710729122 0.9995480179786682 -0.026812950149178505 255.0 36.0 1.0 1.0
-0.97106642 0.53764307 0.15199786 -0.006326391361653805 0.9975494742393494 -0.06967803835868835 255.0 37.0 1.0 1.0
-0.97662711 0.5274393 0.15202762 -0.006326391361653805 0.9975494742393494 -0.06967803835868835 255.0 37.0 1.0 1.0
-0.95667237 0.53043193 0.17845032 -0.01944570615887642 0.9993461966514587 -0.030479762703180313 255.0 38.0 1.0 1.0
-0.94478357 0.51100713 0.17526938 -0.01944570615887642 0.9993461966514587 -0.030479762703180313 255.0 38.0 1.0 1.0
-0.93828493 0.5209887 0.20356745 -0.019419454038143158 0.9979971051216125 -0.06020500510931015 255.0 39.0 1.0 1.0
-0.94021386 0.50926065 0.20285276 -0.019419454038143158 0.9979971051216125 -0.06020500510931015 255.0 39.0 1.0 1.0
-0.96050888 0.53382093 0.2380643 -0.01722320169210434 0.9994205236434937 -0.029357634484767914 255.0 40.0 1.0 1.0
-0.95571065 0.51814812 0.23555857 -0.01722320169210434 0.9994205236434937 -0.029357634484767914 255.0 40.0 1.0 1.0
-0.9713496 0.54080653 0.27135846 -0.012795359827578068 0.999009907245636 -0.0426078662276268 255.0 41.0 1.0 1.0
-0.93593442 0.50838482 0.26002783 -0.012795359827578068 0.999009907245636 -0.0426078662276268 255.0 41.0 1.0 1.0
-0.94084454 0.52481335 0.29281658 -0.018283873796463013 0.9991398453712463 -0.03721786290407181 255.0 42.0 1.0 1.0
-0.94966221 0.51676655 0.2938928 -0.018283873796463013 0.9991398453712463 -0.03721786290407181 255.0 42.0 1.0 1.0
-0.9700892 0.54228568 0.33380726 -0.010834021493792534 0.9969729781150818 -0.07699009031057358 255.0 43.0 1.0 1.0
-0.95549977 0.52110541 0.32694313 -0.018269022926688194 0.9983283281326294 -0.05483391135931015 255.0 43.0 1.0 1.0
-0.92837352 0.52017927 0.35058564 -0.010850687511265278 0.998506486415863 -0.05354468896985054 255.0 44.0 1.0 1.0
-0.91706824 0.50132763 0.34436446 -0.010850687511265278 0.998506486415863 -0.05354468896985054 255.0 44.0 1.0 1.0
-0.9226768 0.51814646 0.38023481 -0.008271761238574982 0.9966045618057251 -0.08192013204097748 255.0 45.0 1.0 1.0
-0.94455051 0.51747364 0.38701817 -0.008271761238574982 0.9966045618057251 -0.08192013204097748 255.0 45.0 1.0 1.0
-0.93570614 0.52682763 0.41842598 0.002032259479165077 0.9973140358924866 -0.07321558892726898 255.0 46.0 1.0 1.0
-0.94768769 0.52057314 0.42135629 0.002032259479165077 0.9973140358924866 -0.07321558892726898 255.0 46.0 1.0 1.0
-0.91856146 0.51835281 0.44428161 -0.0034925846848636866 0.993869423866272 -0.11050453782081604 255.0 47.0 1.0 1.0
-0.90129387 0.49627423 0.43345058 -0.01982416957616806 0.995342493057251 -0.09434188902378082 255.0 47.0 1.0 1.0
-0.92726201 0.30392951 0.44449985 0.021256452426314354 0.994255781173706 -0.10489767044782639 253.0 48.0 1.0 1.0
-0.92689788 0.29310051 0.4428694 0.008985149674117565 0.9933052659034729 -0.11516904085874557 247.0 48.0 1.0 1.0
-0.92915976 0.30356017 0.47841614 -0.011827023699879646 0.993861734867096 -0.10999614745378494 253.0 49.0 1.0 1.0
-0.91854864 0.28950047 0.47141537 0.026732735335826874 0.9885780215263367 -0.14831982553005219 250.0 49.0 1.0 1.0
-0.89278692 0.29060945 0.49266291 -0.013384475372731686 0.9888021349906921 -0.14863085746765137 232.0 50.0 1.0 1.0
-0.90928352 0.28546181 0.50011504 0.028424091637134552 0.9884911775588989 -0.14858412742614746 244.0 50.0 1.0 1.0
-0.91268241 0.29574174 0.53874117 0.004952488467097282 0.9955242872238159 -0.09437623620033264 238.0 51.0 1.0 1.0
-0.91570389 0.28615808 0.53876656 0.004952488467097282 0.9955242872238159 -0.09437623620033264 238.0 51.0 1.0 1.0
-0.89465582 0.28864273 0.56410587 0.013165411539375782 0.9980220198631287 -0.06147010251879692 232.0 52.0 1.0 1.0
-0.90415794 0.28127772 0.56824392 0.0320625938475132 0.9962563514709473 -0.0802818089723587 238.0 52.0 1.0 1.0
-0.89835948 0.28803092 0.6042828 0.013165411539375782 0.9980220198631287 -0.06147010251879692 235.0 53.0 1.0 1.0
-0.88841856 0.2746338 0.59568375 0.013165411539375782 0.9980220198631287 -0.06147010251879692 226.0 53.0 1.0 1.0
-0.88443822 0.28165239 0.63452303 0.011403318494558334 0.9981264472007751 -0.060113247483968735 220.0 54.0 1.0 1.0
-0.89678872 0.27525902 0.6413154 0.011403318494558334 0.9981264472007751 -0.060113247483968735 232.0 54.0 1.0 1.0
-0.89079082 0.28172565 0.68140703 0.0055426000617444515 0.9988117814064026 -0.0484173409640789 235.0 55.0 1.0 1.0
-0.88747633 0.27049354 0.67672032 0.0055426000617444515 0.9988117814064026 -0.0484173409640789 232.0 55.0 1.0 1.0
-0.88284206 0.27680275 0.72003758 0.007160163018852472 0.9991205334663391 -0.041312843561172485 217.0 56.0 1.0 1.0
-0.88566256 0.2675305 0.72006202 -0.007246462628245354 0.9977468252182007 -0.06669893115758896 220.0 56.0 1.0 1.0
-0.88177252 0.27372679 0.76713991 -3.799791738856584e-05 0.9999988079071045 -0.0015623864019289613 220.0 57.0 1.0 1.0
-0.89340919 0.26709786 0.77482963 -3.799791738856584e-05 0.9999988079071045 -0.0015623864019289613 238.0 57.0 1.0 1.0
-0.87233138 0.26811159 0.81028092 -3.797817407757975e-05 0.9994792342185974 -0.03227030485868454 220.0 58.0 1.0 1.0
-0.87505931 0.25894883 0.810305 -3.797817407757975e-05 0.9994792342185974 -0.03227030485868454 214.0 58.0 1.0 1.0
-0.87685603 0.26613387 0.87124157 -0.003706819610670209 0.9997006058692932 -0.024184295907616615 226.0 59.0 1.0 1.0
-0.8795616 0.25692314 0.87126577 -0.008225152269005775 0.9999650716781616 -0.0015004915185272694 229.0 59.0 1.0 1.0
-0.88293612 0.26376823 0.94013417 -0.0013496688334271312 0.9997212886810303 -0.02356850914657116 241.0 60.0 1.0 1.0
-0.88022894 0.2529532 0.93444705 0.0069879270158708096 0.9994666576385498 -0.03189973905682564 241.0 60.0 1.0 1.0
-0.88694179 0.2600956 1.0145427 0.013404933735728264 0.9998034834861755 -0.014605746604502201 253.0 61.0 1.0 1.0
-0.88958019 0.25077742 1.014567 0.013404933735728264 0.9998034834861755 -0.014605746604502201 253.0 61.0 1.0 1.0
-0.87291539 0.25075865 1.0765209 -0.014322544448077679 0.9980994462966919 -0.059936121106147766 250.0 62.0 1.0 1.0
-0.88043147 0.24295352 1.0826579 0.00044875970343127847 0.9972103834152222 -0.07464128732681274 255.0 62.0 1.0 1.0
-0.87511396 0.24485871 1.1687664 -0.016725702211260796 0.9992814660072327 -0.03401355445384979 255.0 63.0 1.0 1.0
-0.88470823 0.23756513 1.1782618 -0.016725702211260796 0.9992814660072327 -0.03401355445384979 255.0 63.0 1.0 1.0
-0.40182936 0.25258014 -0.62362283 0.20393770933151245 0.08734313398599625 0.9750797748565674 250.0 0.0 1.0 1.0
-0.40119803 0.25807494 -0.62682039 0.14327441155910492 0.7142847180366516 0.6850327253341675 250.0 0.0 1.0 1.0
-0.43339658 0.2683818 -0.61617738 0.18319684267044067 0.015851065516471863 0.9829484224319458 235.0 1.0 1.0 1.0
-0.41763198 0.26475 -0.59768641 0.1908208280801773 0.023749331012368202 0.9813374876976013 226.0 1.0 1.0 1.0
-0.46585253 0.28505161 -0.61129701 0.14641733467578888 -0.06669487059116364 0.9869720339775085 232.0 2.0 1.0 1.0
-0.45606098 0.28568524 -0.60235626 0.18969734013080597 -0.11089669167995453 0.9755597114562988 229.0 2.0 1.0 1.0
-0.50285989 0.30436277 -0.61087996 0.2499404102563858 -0.010674790479242802 0.9682023525238037 235.0 3.0 1.0 1.0
-0.49020866 0.30378872 -0.59935743 0.2499404102563858 -0.010674790479242802 0.9682023525238037 226.0 3.0 1.0 1.0
-0.53944165 0.32371584 -0.60924715 0.23958143591880798 0.10768197476863861 0.9648861885070801 235.0 4.0 1.0 1.0
-0.5384692 0.33084217 -0.61204863 0.06745728105306625 -0.006035720929503441 0.9977039098739624 244.0 4.0 1.0 1.0
-0.58374166 0.3474153 -0.61417913 0.06414707750082016 0.10967797785997391 0.9918950796127319 255.0 5.0 1.0 1.0
-0.55725735 0.33965799 -0.59003383 0.24165135622024536 0.10664711147546768 0.9644848108291626 229.0 5.0 1.0 1.0
-0.59678888 0.35273781 -0.58611643 0.11558665335178375 -0.07780877500772476 0.9902451634407043 238.0 6.0 1.0 1.0
-0.59306067 0.35896477 -0.58613473 0.11558665335178375 -0.07780877500772476 0.9902451634407043 232.0 6.0 1.0 1.0
-0.65693456 0.38595429 -0.60325891 0.08461356163024902 -0.14373920857906342 0.9859917163848877 253.0 7.0 1.0 1.0
-0.6474784 0.38958594 -0.59830862 0.07948186993598938 -0.13944323360919952 0.9870349764823914 255.0 7.0 1.0 1.0
-0.67371261 0.39383835 -0.57920957 0.08454275876283646 -0.07602445036172867 0.9935153722763062 253.0 8.0 1.0 1.0
-0.6805774 0.40744826 -0.5887751 0.08454275876283646 -0.07602445036172867 0.9935153722763062 255.0 8.0 1.0 1.0
-0.72358143 0.42080453 -0.5826425 0.12351971864700317 -0.003920014016330242 0.9923343062400818 250.0 9.0 1.0 1.0
-0.72195512 0.43003079 -0.58495194 0.12351971864700317 -0.003920014016330242 0.9923343062400818 255.0 9.0 1.0 1.0
-0.77377898 0.44839242 -0.5835917 0.15650968253612518 0.012591304257512093 0.9875962138175964 255.0 10.0 1.0 1.0
-0.76615775 0.45476228 -0.5814271 0.15650968253612518 0.012591304257512093 0.9875962138175964 255.0 10.0 1.0 1.0
-0.8126955 0.46909586 -0.57380444 0.12162523716688156 -0.025029445067048073 0.9922604560852051 255.0 11.0 1.0 1.0
-0.81655276 0.48277518 -0.58009595 0.12162523716688156 -0.025029445067048073 0.9922604560852051 255.0 11.0 1.0 1.0
-0.85464799 0.49156702 -0.56413162 0.16169428825378418 0.04222366213798523 0.9859371781349182 255.0 12.0 1.0 1.0
-0.85842937 0.50576144 -0.57012373 0.12906688451766968 0.04242882505059242 0.9907278418540955 255.0 12.0 1.0 1.0
-0.92078441 0.52812046 -0.56806886 0.0077149211429059505 -0.9987266659736633 0.04985592141747475 255.0 13.0 1.0 1.0
-0.89999354 0.52881759 -0.55864972 0.010058267042040825 -0.9982227683067322 0.05873711407184601 255.0 13.0 1.0 1.0
-0.96893573 0.55443507 -0.55780745 0.0068108877167105675 -0.9953282475471497 0.09630823135375977 255.0 14.0 1.0 1.0
-0.96925157 0.56815976 -0.5614168 0.0068108877167105675 -0.9953282475471497 0.09630823135375977 255.0 14.0 1.0 1.0
-0.99825418 0.56989807 -0.53521103 0.006218330468982458 0.9950055480003357 0.09962525218725204 255.0 15.0 1.0 1.0
-1.0016248 0.58579874 -0.54031259 0.006218330468982458 0.9950055480003357 0.09962525218725204 255.0 15.0 1.0 1.0
-0.9820419 0.32658744 -0.44810346 0.013612968847155571 0.9997273683547974 -0.018969984725117683 255.0 16.0 1.0 1.0
-0.99245536 0.34161332 -0.45449588 0.013612968847155571 0.9997273683547974 -0.018969984725117683 255.0 16.0 1.0 1.0
-0.99288756 0.33142281 -0.41980258 0.031243329867720604 0.9990020394325256 -0.03191767632961273 255.0 17.0 1.0 1.0
-0.98585504 0.34059268 -0.4183391 0.031243329867720604 0.9990020394325256 -0.03191767632961273 255.0 17.0 1.0 1.0
-1.0028862 0.33619571 -0.39132068 0.0007002995116636157 0.9999219179153442 -0.012474280782043934 255.0 18.0 1.0 1.0
-1.0134933 0.35157937 -0.39690825 0.0007002995116636157 0.9999219179153442 -0.012474280782043934 255.0 18.0 1.0 1.0
-1.0049168 0.3381286 -0.36028999 0.055615320801734924 0.9962584376335144 -0.06615114957094193 255.0 19.0 1.0 1.0
-0.99059224 0.34490991 -0.35645059 0.055615320801734924 0.9962584376335144 -0.06615114957094193 255.0 19.0 1.0 1.0
-0.97710389 0.32983449 -0.32019648 0.05564482510089874 0.9967870116233826 -0.05761437118053436 255.0 20.0 1.0 1.0
-0.99163717 0.34632459 -0.32616511 0.0004991870373487473 0.9999967813491821 -0.0024750735610723495 255.0 20.0 1.0 1.0
-0.98808211 0.33456489 -0.29410905 0.0004991870373487473 0.9999967813491821 -0.0024750735610723495 255.0 21.0 1.0 1.0
-0.97726083 0.34235746 -0.2919611 0.0004991870373487473 0.9999967813491821 -0.0024750735610723495 255.0 21.0 1.0 1.0
-0.9800874 0.33289856 -0.26259536 0.025199906900525093 0.9967018365859985 -0.07713957875967026 255.0 22.0 1.0 1.0
-0.99118894 0.34826809 -0.26656625 0.025199906900525093 0.9967018365859985 -0.07713957875967026 255.0 22.0 1.0 1.0
-0.99336284 0.33824036 -0.23740038 0.036766283214092255 0.9972735047340393 -0.06398369371891022 255.0 23.0 1.0 1.0
-0.97873038 0.34474984 -0.2347731 0.02337827906012535 0.9991001486778259 -0.0353894978761673 255.0 23.0 1.0 1.0
-0.97266221 0.33186007 -0.20469768 -0.0012168935500085354 0.9996850490570068 -0.025068819522857666 255.0 24.0 1.0 1.0
-0.98024231 0.34593177 -0.20707594 0.0258684940636158 0.9992786049842834 -0.027804862707853317 255.0 24.0 1.0 1.0
-0.99204487 0.33929494 -0.18070658 0.0251736119389534 0.9994513988494873 -0.021519431844353676 255.0 25.0 1.0 1.0
-0.97357595 0.34442562 -0.17800695 0.017477484419941902 0.9992647171020508 -0.03412511572241783 255.0 25.0 1.0 1.0
-0.98846018 0.33872473 -0.15237287 0.014423604123294353 0.9990214109420776 -0.04181043803691864 255.0 26.0 1.0 1.0
-0.97740364 0.34642336 -0.15124103 0.014423604123294353 0.9990214109420776 -0.04181043803691864 255.0 26.0 1.0 1.0
-0.97291112 0.33386669 -0.12320212 0.0038476523477584124 0.9993997812271118 -0.03442932292819023 255.0 27.0 1.0 1.0
-0.99183583 0.35198197 -0.12609822 0.014315453357994556 0.9993176460266113 -0.03405124321579933 255.0 27.0 1.0 1.0
-0.98293811 0.33794081 -0.097492181 0.0038476523477584124 0.9993997812271118 -0.03442932292819023 255.0 28.0 1.0 1.0
-0.96809399 0.34422871 -0.096391402 0.00575356837362051 0.9991773962974548 -0.04014197736978531 255.0 28.0 1.0 1.0
-0.96603978 0.33241126 -0.06942863 0.011098766699433327 0.9964891076087952 -0.08298275619745255 255.0 29.0 1.0 1.0
-0.97380006 0.34651232 -0.070276633 0.011098766699433327 0.9964891076087952 -0.08298275619745255 255.0 29.0 1.0 1.0
-0.96727931 0.33328289 -0.043323968 0.011133813299238682 0.999635636806488 -0.024591367691755295 255.0 30.0 1.0 1.0
-0.9825778 0.35008132 -0.044209622 0.011133813299238682 0.999635636806488 -0.024591367691755295 255.0 30.0 1.0 1.0
-0.97935057 0.33749583 -0.017488867 -0.009224816225469112 0.9972618818283081 -0.07337304204702377 255.0 31.0 1.0 1.0
-0.9606989 0.3423838 -0.01723594 -0.009224816225469112 0.9972618818283081 -0.07337304204702377 255.0 31.0 1.0 1.0
-0.97864568 0.55327696 0.0093319388 -0.005150965414941311 0.9985812306404114 -0.05299966782331467 255.0 32.0 1.0 1.0
-0.97627383 0.56549978 0.009333211 0.01712108962237835 0.9990674257278442 -0.039637353271245956 255.0 32.0 1.0 1.0
-0.96746278 0.54749739 0.037547477 -0.0029810413252562284 0.9992724657058716 -0.03802241384983063 255.0 33.0 1.0 1.0
-0.96168953 0.55760258 0.037518188 0.01710689254105091 0.9982389807701111 -0.05679984763264656 255.0 33.0 1.0 1.0
-0.95924526 0.54316068 0.065382645 -0.0029821551870554686 0.9996458888053894 -0.026440203189849854 255.0 34.0 1.0 1.0
-0.97079903 0.5631808 0.066526316 0.0015742072137072682 0.9994637370109558 -0.03270689770579338 255.0 34.0 1.0 1.0
-0.98522234 0.55791682 0.096171923 -0.0017234738916158676 0.9992262125015259 -0.039293743669986725 255.0 35.0 1.0 1.0
-0.9758907 0.5662114 0.095805757 -0.0017234738916158676 0.9992262125015259 -0.039293743669986725 255.0 35.0 1.0 1.0
-0.9756214 0.55302626 0.12420346 -0.0007365967612713575 0.9996401071548462 -0.026815420016646385 255.0 36.0 1.0 1.0
-0.94915015 0.55125874 0.12154511 -0.0007365967612713575 0.9996401071548462 -0.026815420016646385 255.0 36.0 1.0 1.0
-0.94125593 0.53410989 0.14817716 -0.006326391361653805 0.9975494742393494 -0.06967803835868835 255.0 37.0 1.0 1.0
-0.96991199 0.56382543 0.15355265 -0.01944570615887642 0.9993461966514587 -0.030479762703180313 255.0 37.0 1.0 1.0
-0.97512734 0.55404031 0.18290654 -0.01944570615887642 0.9993461966514587 -0.030479762703180313 255.0 38.0 1.0 1.0
-0.9761169 0.5681929 0.1841605 0.006986617110669613 0.998114287853241 -0.06098402664065361 255.0 38.0 1.0 1.0
-0.95330632 0.54241669 0.20799078 -0.019419454038143158 0.9979971051216125 -0.06020500510931015 255.0 39.0 1.0 1.0
-0.94759083 0.55237633 0.20796192 -0.019419454038143158 0.9979971051216125 -0.06020500510931015 255.0 39.0 1.0 1.0
-0.94808793 0.53997767 0.23633775 -0.01722320169210434 0.9994205236434937 -0.029357634484767914 255.0 40.0 1.0 1.0
-0.95929432 0.55971694 0.24053288 -0.012795359827578068 0.999009907245636 -0.0426078662276268 255.0 40.0 1.0 1.0
-0.96227741 0.54901588 0.27037486 -0.012795359827578068 0.999009907245636 -0.0426078662276268 255.0 41.0 1.0 1.0
-0.95649374 0.55906981 0.27034572 -0.012804227881133556 0.9997022747993469 -0.02076900377869606 255.0 41.0 1.0 1.0
-0.93196642 0.53271371 0.29173318 -0.012804227881133556 0.9997022747993469 -0.02076900377869606 255.0 42.0 1.0 1.0
-0.93969005 0.55023938 0.29589322 0.0005622261669486761 0.9994802474975586 -0.032232314348220825 255.0 42.0 1.0 1.0
-0.94109458 0.53909671 0.32572874 -0.010834021493792534 0.9969729781150818 -0.07699009031057358 255.0 43.0 1.0 1.0
-0.96517754 0.56634992 0.33603847 -0.010834021493792534 0.9969729781150818 -0.07699009031057358 255.0 43.0 1.0 1.0
-0.93609035 0.53741246 0.3555488 -0.010850687511265278 0.998506486415863 -0.05354468896985054 255.0 44.0 1.0 1.0
-0.93698686 0.55103874 0.35801971 -0.009483769536018372 0.9982931613922119 -0.05762704834342003 255.0 44.0 1.0 1.0
-0.92375827 0.53151387 0.3829008 -0.0047344304621219635 0.996776282787323 -0.0800909698009491 255.0 45.0 1.0 1.0
-0.94412845 0.55643165 0.39367852 -0.004734487272799015 0.9967881441116333 -0.07994265109300613 255.0 45.0 1.0 1.0
-0.94632161 0.54587746 0.425643 0.002032259479165077 0.9973140358924866 -0.07321558892726898 255.0 46.0 1.0 1.0
-0.94699842 0.55955172 0.42851529 0.002032259479165077 0.9973140358924866 -0.07321558892726898 255.0 46.0 1.0 1.0
-0.92908269 0.53713632 0.45200187 -0.0034925846848636866 0.993869423866272 -0.11050453782081604 255.0 47.0 1.0 1.0
-0.93295348 0.55247068 0.4566268 -0.0034925846848636866 0.993869423866272 -0.11050453782081604 255.0 47.0 1.0 1.0
-0.91716284 0.31127506 0.44114545 0.021256452426314354 0.994255781173706 -0.10489767044782639 250.0 48.0 1.0 1.0
-0.90700138 0.31846774 0.4378081 0.021256452426314354 0.994255781173706 -0.10489767044782639 241.0 48.0 1.0 1.0
-0.92596453 0.31325638 0.47837389 -0.011827023699879646 0.993861734867096 -0.10999614745378494 255.0 49.0 1.0 1.0
-0.91926336 0.32176194 0.47659194 -0.013384475372731686 0.9888021349906921 -0.14863085746765137 247.0 49.0 1.0 1.0
-0.89644784 0.30217937 0.49633503 -0.01019237469881773 0.9883661270141602 -0.15175151824951172 232.0 50.0 1.0 1.0
-0.89995199 0.31388485 0.50002337 -0.01019237469881773 0.9883661270141602 -0.15175151824951172 238.0 50.0 1.0 1.0
-0.90626365 0.30415836 0.53674275 0.004952488467097282 0.9955242872238159 -0.09437623620033264 229.0 51.0 1.0 1.0
-0.909648 0.3159228 0.54063082 0.004952488467097282 0.9955242872238159 -0.09437623620033264 244.0 51.0 1.0 1.0
-0.9013887 0.30122572 0.57023376 0.013165411539375782 0.9980220198631287 -0.06147010251879692 235.0 52.0 1.0 1.0
-0.88847864 0.30730668 0.56404001 -0.014332514256238937 0.9970689415931702 -0.07515406608581543 226.0 52.0 1.0 1.0
-0.89213532 0.2963433 0.60208559 0.013165411539375782 0.9980220198631287 -0.06147010251879692 229.0 53.0 1.0 1.0
-0.89219707 0.3067719 0.60421675 0.013165411539375782 0.9980220198631287 -0.06147010251879692 232.0 53.0 1.0 1.0
-0.88148195 0.29087624 0.63448203 0.005540930200368166 0.9985108971595764 -0.054269615560770035 220.0 54.0 1.0 1.0
-0.89405131 0.30542147 0.6457361 -0.0065400125458836555 0.9985049366950989 -0.05426929146051407 235.0 54.0 1.0 1.0
-0.89090866 0.29201812 0.6837213 0.003471195697784424 0.9989191889762878 -0.04635054990649223 235.0 55.0 1.0 1.0
-0.8908928 0.30237836 0.68605226 0.003471195697784424 0.9989191889762878 -0.04635054990649223 229.0 55.0 1.0 1.0
-0.87693596 0.28503543 0.71754134 0.007160163018852472 0.9991205334663391 -0.041312843561172485 217.0 56.0 1.0 1.0
-0.86794353 0.29220811 0.71260697 0.007160163018852472 0.9991205334663391 -0.041312843561172485 205.0 56.0 1.0 1.0
-0.89649057 0.28855461 0.78242844 -0.007262355647981167 0.9999350309371948 -0.008786652237176895 232.0 57.0 1.0 1.0
-0.87592447 0.29212016 0.76707476 -0.007262355647981167 0.9999350309371948 -0.008786652237176895 217.0 57.0 1.0 1.0
-0.88093358 0.28082487 0.82085806 -0.03530252352356911 0.999372124671936 0.0029977234080433846 229.0 58.0 1.0 1.0
-0.87513345 0.28911278 0.81817949 0.015614456497132778 0.9998739957809448 -0.0028666192665696144 229.0 58.0 1.0 1.0
-0.88237464 0.27787456 0.87946546 0.003480586688965559 0.9991825222969055 -0.04027564078569412 232.0 59.0 1.0 1.0
-0.87117505 0.28442445 0.8711766 0.003480586688965559 0.9991825222969055 -0.04027564078569412 220.0 59.0 1.0 1.0
-0.88018042 0.27296883 0.94009268 0.002574197482317686 0.9997189044952393 -0.023568451404571533 241.0 60.0 1.0 1.0
-0.88797873 0.28560239 0.95149058 0.002574197482317686 0.9997189044952393 -0.023568451404571533 244.0 60.0 1.0 1.0
-0.87649071 0.26699015 1.0056331 0.015953274443745613 0.9997256398200989 -0.017153996974229813 247.0 61.0 1.0 1.0
-0.87882406 0.27778712 1.011521 0.015953274443745613 0.9997256398200989 -0.017153996974229813 250.0 61.0 1.0 1.0
-0.87524962 0.26132029 1.0825924 -0.014322544448077679 0.9980994462966919 -0.059936121106147766 253.0 62.0 1.0 1.0
-0.87496829 0.271249 1.0856251 -0.00829066801816225 0.997814953327179 -0.06554816663265228 250.0 62.0 1.0 1.0
-0.87492615 0.2546545 1.1718818 0.0006247792625799775 0.9990819096565247 -0.0428352952003479 255.0 63.0 1.0 1.0
-0.87460315 0.26452836 1.1750151 0.0006247792625799775 0.9990819096565247 -0.0428352952003479 255.0 63.0 1.0 1.0
-0.39569059 0.26642367 -0.62685364 0.08035632222890854 0.7663020491600037 0.6374354958534241 250.0 0.0 1.0 1.0
-0.39846149 0.26226902 -0.62684137 0.08035632222890854 0.7663020491600037 0.6374354958534241 244.0 0.0 1.0 1.0
-0.41623393 0.27624843 -0.60388905 0.1908208280801773 0.023749331012368202 0.9813374876976013 232.0 1.0 1.0 1.0
-0.43408698 0.2815471 -0.62546498 0.1908208280801773 0.023749331012368202 0.9813374876976013 247.0 1.0 1.0 1.0
-0.45442298 0.29808879 -0.60836303 0.18969734013080597 -0.11089669167995453 0.9755597114562988 235.0 2.0 1.0 1.0
-0.45078838 0.28902024 -0.59939367 0.18969734013080597 -0.11089669167995453 0.9755597114562988 223.0 2.0 1.0 1.0
-0.48837999 0.3170009 -0.605165 0.2499404102563858 -0.010674790479242802 0.9682023525238037 229.0 3.0 1.0 1.0
-0.49401799 0.31335232 -0.60803455 0.2499404102563858 -0.010674790479242802 0.9682023525238037 235.0 3.0 1.0 1.0
-0.51690459 0.33275422 -0.59537959 0.23087003827095032 -0.02065703086555004 0.972765326499939 235.0 4.0 1.0 1.0
-0.52766263 0.33189872 -0.60371846 0.23087003827095032 -0.02065703086555004 0.972765326499939 238.0 4.0 1.0 1.0
-0.55751318 0.35603347 -0.5981307 0.24254049360752106 -0.06391347944736481 0.9680336117744446 235.0 5.0 1.0 1.0
-0.55113977 0.34391823 -0.58737415 0.24165135622024536 0.10664711147546768 0.9644848108291626 229.0 5.0 1.0 1.0
-0.60088187 0.38109633 -0.60168862 0.11590724438428879 -0.023087359964847565 0.9929916858673096 250.0 6.0 1.0 1.0
-0.59445214 0.36837161 -0.59133065 0.11590724438428879 -0.023087359964847565 0.9929916858673096 238.0 6.0 1.0 1.0
-0.62058711 0.39139259 -0.58095825 0.03405104577541351 -0.07828839868307114 0.9963490962982178 238.0 7.0 1.0 1.0
-0.6380083 0.39307505 -0.59336561 0.03405104577541351 -0.07828839868307114 0.9963490962982178 247.0 7.0 1.0 1.0
-0.66099381 0.41480964 -0.57927847 0.034003205597400665 -0.0944453626871109 0.9949491620063782 247.0 8.0 1.0 1.0
-0.66530293 0.40786818 -0.57925826 0.08454275876283646 -0.07602445036172867 0.9935153722763062 244.0 8.0 1.0 1.0
-0.71556169 0.44679788 -0.58729064 0.12351971864700317 -0.003920014016330242 0.9923343062400818 255.0 9.0 1.0 1.0
-0.71179187 0.43416849 -0.58040643 0.12351971864700317 -0.003920014016330242 0.9923343062400818 255.0 9.0 1.0 1.0
-0.74791533 0.46542025 -0.57491583 0.11372177302837372 0.012665705755352974 0.9934319257736206 255.0 10.0 1.0 1.0
-0.76134032 0.46277171 -0.58145767 0.11372177302837372 0.012665705755352974 0.9934319257736206 255.0 10.0 1.0 1.0
-0.79754353 0.49439776 -0.57388514 0.11290787905454636 -0.016193987801671028 0.9934735298156738 255.0 11.0 1.0 1.0
-0.80267835 0.48602194 -0.57386088 0.11290787905454636 -0.016193987801671028 0.9934735298156738 255.0 11.0 1.0 1.0
-0.85058868 0.52545846 -0.57217121 0.12210126966238022 0.03536178916692734 0.9918875098228455 255.0 12.0 1.0 1.0
-0.85009861 0.51294637 -0.56816787 0.12906688451766968 0.04242882505059242 0.9907278418540955 255.0 12.0 1.0 1.0
-0.88269937 0.54386783 -0.55493152 0.13253585994243622 0.011472349055111408 0.9911118149757385 255.0 13.0 1.0 1.0
-0.88834715 0.5345974 -0.5549047 0.13253585994243622 0.011472349055111408 0.9911118149757385 255.0 13.0 1.0 1.0
-0.94797677 0.5827347 -0.55611128 -0.021581461653113365 -0.9964511394500732 0.0813596099615097 255.0 14.0 1.0 1.0
-0.96937186 0.58196896 -0.56503254 -0.021581461653113365 -0.9964511394500732 0.0813596099615097 255.0 14.0 1.0 1.0
-0.98912251 0.60665822 -0.54037923 0.04203549399971962 0.9941453337669373 0.0995391234755516 255.0 15.0 1.0 1.0
-0.98919833 0.59254974 -0.53696823 0.04203549399971962 0.9941453337669373 0.0995391234755516 255.0 15.0 1.0 1.0
-0.98507845 0.36233276 -0.45456645 0.013612968847155571 0.9997273683547974 -0.018969984725117683 255.0 16.0 1.0 1.0
-0.97844142 0.34831816 -0.44976509 0.013612968847155571 0.9997273683547974 -0.018969984725117683 255.0 16.0 1.0 1.0
-0.98547041 0.36373594 -0.42139158 0.005535532720386982 0.9995512962341309 -0.02943742461502552 255.0 17.0 1.0 1.0
-0.99621689 0.3558867 -0.42434663 0.006783862132579088 0.9994669556617737 -0.031932532787323 255.0 17.0 1.0 1.0
-1.0023884 0.37143728 -0.39558983 0.005537502001971006 0.9999068379402161 -0.012474092654883862 255.0 18.0 1.0 1.0
-0.99915659 0.35839632 -0.39278212 0.005537502001971006 0.9999068379402161 -0.012474092654883862 255.0 18.0 1.0 1.0
-1.0115578 0.37611353 -0.36683521 0.013519365340471268 0.9977115988731384 -0.06624764204025269 255.0 19.0 1.0 1.0
-0.98335969 0.35399455 -0.35520473 0.013519365340471268 0.9977115988731384 -0.06624764204025269 255.0 19.0 1.0 1.0
-0.98417038 0.36702317 -0.3262355 0.00203772378154099 0.9999948740005493 -0.0024750689044594765 255.0 20.0 1.0 1.0
-0.96279836 0.34764659 -0.31788942 0.00203772378154099 0.9999948740005493 -0.0024750689044594765 255.0 20.0 1.0 1.0
-0.98070318 0.36678791 -0.29529423 0.0309166070073843 0.9977052211761475 -0.060236454010009766 255.0 21.0 1.0 1.0
-0.98810589 0.35780445 -0.29635504 0.0309166070073843 0.9977052211761475 -0.060236454010009766 255.0 21.0 1.0 1.0
-0.98368549 0.36895579 -0.26663655 0.016988560557365417 0.9974592328071594 -0.0691833421587944 255.0 22.0 1.0 1.0
-0.98748946 0.35863414 -0.26660946 0.01622966304421425 0.9972111582756042 -0.07284624874591827 255.0 22.0 1.0 1.0
-0.97861111 0.36791435 -0.23661298 0.015940342098474503 0.9998237490653992 -0.00992391537874937 255.0 23.0 1.0 1.0
-0.97140282 0.35365433 -0.23393086 -0.009242961183190346 0.9993305206298828 -0.03539765998721123 255.0 23.0 1.0 1.0
-0.99115533 0.37328163 -0.21106547 -0.00924274604767561 0.9993072748184204 -0.03604922443628311 255.0 24.0 1.0 1.0
-0.98394346 0.35886106 -0.20868652 -0.00924274604767561 0.9993072748184204 -0.03604922443628311 255.0 24.0 1.0 1.0
-0.98829675 0.37307096 -0.18216819 -0.0009994808351621032 0.9996126890182495 -0.02781415358185768 255.0 25.0 1.0 1.0
-0.9810316 0.35865203 -0.18009524 -0.0009994808351621032 0.9996126890182495 -0.02781415358185768 255.0 25.0 1.0 1.0
-0.98846656 0.37379977 -0.15420969 -0.004396422300487757 0.9991157054901123 -0.04181438311934471 255.0 26.0 1.0 1.0
-0.98488277 0.36071226 -0.15302294 -0.004396422300487757 0.9991157054901123 -0.04181438311934471 255.0 26.0 1.0 1.0
-0.96197009 0.36426812 -0.12329803 0.0038476523477584124 0.9993997812271118 -0.03442932292819023 255.0 27.0 1.0 1.0
-0.96572292 0.35417202 -0.12327152 -0.017187898978590965 0.999272346496582 -0.03404969722032547 255.0 27.0 1.0 1.0
-0.99421632 0.37710392 -0.099846378 0.00575356837362051 0.9991773962974548 -0.04014197736978531 255.0 28.0 1.0 1.0
-0.98688239 0.36256251 -0.098690562 -0.017187898978590965 0.999272346496582 -0.03404969722032547 255.0 28.0 1.0 1.0
-0.96261752 0.36542115 -0.070071846 -0.0008479212410748005 0.9965502619743347 -0.08298785239458084 255.0 29.0 1.0 1.0
-0.97387516 0.35806364 -0.070593007 0.011098766699433327 0.9964891076087952 -0.08298275619745255 255.0 29.0 1.0 1.0
-0.97505265 0.37058479 -0.044279292 -0.0008506345911882818 0.9997392296791077 -0.022819651290774345 255.0 30.0 1.0 1.0
-0.97136533 0.35759833 -0.043908644 0.011133813299238682 0.999635636806488 -0.024591367691755295 255.0 30.0 1.0 1.0
-0.97578168 0.37093094 -0.017725796 -0.009224816225469112 0.9972618818283081 -0.07337304204702377 255.0 31.0 1.0 1.0
-0.95707321 0.35242355 -0.017278027 -0.009224816225469112 0.9972618818283081 -0.07337304204702377 255.0 31.0 1.0 1.0
-0.97792107 0.59411633 0.009390818 0.023044820874929428 0.9983293414115906 -0.05298629403114319 255.0 32.0 1.0 1.0
-0.9909609 0.58791447 0.0094819851 0.01712108962237835 0.9990674257278442 -0.039637353271245956 255.0 32.0 1.0 1.0
-0.9840045 0.59835827 0.038779151 0.027478264644742012 0.998899519443512 -0.038008224219083786 255.0 33.0 1.0 1.0
-0.98332447 0.58394164 0.038543604 0.01710689254105091 0.9982389807701111 -0.05679984763264656 255.0 33.0 1.0 1.0
-0.9588176 0.58338881 0.066461422 0.013805009424686432 0.9979589581489563 -0.06234859302639961 255.0 34.0 1.0 1.0
-0.95112085 0.56516713 0.06555257 0.02335967682301998 0.9991553425788879 -0.033808983862400055 255.0 34.0 1.0 1.0
-0.97406775 0.59273046 0.09674906 0.02335967682301998 0.9991553425788879 -0.033808983862400055 255.0 35.0 1.0 1.0
-0.95277864 0.56623131 0.094088413 0.02335967682301998 0.9991553425788879 -0.033808983862400055 255.0 35.0 1.0 1.0
-0.9510181 0.57927376 0.12323321 0.02335967682301998 0.9991553425788879 -0.033808983862400055 255.0 36.0 1.0 1.0
-0.93308264 0.55507457 0.1201956 0.02335967682301998 0.9991553425788879 -0.033808983862400055 255.0 36.0 1.0 1.0
-0.95115095 0.57989335 0.15240744 0.019828766584396362 0.9993387460708618 -0.030479535460472107 255.0 37.0 1.0 1.0
-0.96737832 0.57596821 0.15405712 0.019828766584396362 0.9993387460708618 -0.030479535460472107 255.0 37.0 1.0 1.0
-0.96403724 0.58850861 0.18409538 0.006986617110669613 0.998114287853241 -0.06098402664065361 255.0 38.0 1.0 1.0
-0.97691756 0.58241224 0.18540785 0.006986617110669613 0.998114287853241 -0.06098402664065361 255.0 38.0 1.0 1.0
-0.95933962 0.5864225 0.2130992 0.0042101358994841576 0.99942547082901 -0.03363044932484627 255.0 39.0 1.0 1.0
-0.96203417 0.57432723 0.21238513 0.0042101358994841576 0.99942547082901 -0.03363044932484627 255.0 39.0 1.0 1.0
-0.9674229 0.59190392 0.24553618 0.019145449623465538 0.998908519744873 -0.042603544890880585 255.0 40.0 1.0 1.0
-0.95340049 0.56972206 0.24049735 -0.012795359827578068 0.999009907245636 -0.0426078662276268 255.0 40.0 1.0 1.0
-0.9611938 0.5891124 0.27501285 0.01345411129295826 0.9996938705444336 -0.020768828690052032 255.0 41.0 1.0 1.0
-0.93392456 0.55908138 0.26557866 -0.012804227881133556 0.9997022747993469 -0.02076900377869606 255.0 41.0 1.0 1.0
-0.95104611 0.58390981 0.30315837 0.0005622261669486761 0.9994802474975586 -0.032232314348220825 255.0 42.0 1.0 1.0
-0.95046383 0.56994742 0.30109319 0.0005622261669486761 0.9994802474975586 -0.032232314348220825 255.0 42.0 1.0 1.0
-0.97274125 0.59846145 0.34286514 0.014189411886036396 0.9969311356544495 -0.07698686420917511 255.0 43.0 1.0 1.0
-0.96579027 0.5803538 0.33830014 -0.010834021493792534 0.9969729781150818 -0.07699009031057358 255.0 43.0 1.0 1.0
-0.93823254 0.5784992 0.36295474 0.01093944814056158 0.9982783794403076 -0.05762619897723198 255.0 44.0 1.0 1.0
-0.92467594 0.55689305 0.35548574 -0.009483769536018372 0.9982931613922119 -0.05762704834342003 255.0 44.0 1.0 1.0
-0.92911071 0.57410067 0.39226478 -0.004734487272799015 0.9967881441116333 -0.07994265109300613 255.0 45.0 1.0 1.0
-0.94795275 0.57209998 0.39769548 -0.004734487272799015 0.9967881441116333 -0.07994265109300613 255.0 45.0 1.0 1.0
-0.92560881 0.57337606 0.424101 0.013105048798024654 0.9952795505523682 -0.09616057574748993 255.0 46.0 1.0 1.0
-0.94111472 0.56942272 0.4284803 0.002032259479165077 0.9973140358924866 -0.07321558892726898 255.0 46.0 1.0 1.0
-0.92123055 0.57188094 0.45656428 0.026067277416586876 0.9939467906951904 -0.10672492533922195 255.0 47.0 1.0 1.0
-0.92714602 0.56219399 0.4565922 0.008731917478144169 0.9944544434547424 -0.10480538755655289 255.0 47.0 1.0 1.0
-0.92406541 0.34630117 0.44933361 -0.02863711304962635 0.9940726161003113 -0.10487833619117737 253.0 48.0 1.0 1.0
-0.93446732 0.3390727 0.45267078 -0.02863711304962635 0.9940726161003113 -0.10487833619117737 255.0 48.0 1.0 1.0
-0.89890784 0.33592013 0.46950138 -0.01703472062945366 0.987223207950592 -0.15843017399311066 232.0 49.0 1.0 1.0
-0.92263901 0.33379081 0.48006353 0.021256452426314354 0.994255781173706 -0.10489767044782639 253.0 49.0 1.0 1.0
-0.90320516 0.33635238 0.5055275 -0.01019237469881773 0.9883661270141602 -0.15175151824951172 244.0 50.0 1.0 1.0
-0.91665798 0.33045918 0.51112151 -0.01019237469881773 0.9883661270141602 -0.15175151824951172 250.0 50.0 1.0 1.0
-0.90616602 0.33610445 0.54252183 -0.010249881073832512 0.9939427375793457 -0.10942080616950989 232.0 51.0 1.0 1.0
-0.89647114 0.32188702 0.53472084 -0.010249881073832512 0.9939427375793457 -0.10942080616950989 226.0 51.0 1.0 1.0
-0.90445048 0.33413219 0.57836848 -0.014332514256238937 0.9970689415931702 -0.07515406608581543 241.0 52.0 1.0 1.0
-0.90141034 0.32232967 0.57428086 -0.014332514256238937 0.9970689415931702 -0.07515406608581543 238.0 52.0 1.0 1.0
-0.87931377 0.32306296 0.5998413 -0.014332514256238937 0.9970689415931702 -0.07515406608581543 226.0 53.0 1.0 1.0
-0.87627041 0.31157732 0.59555411 0.013165411539375782 0.9980220198631287 -0.06147010251879692 220.0 53.0 1.0 1.0
-0.89063168 0.32519659 0.64792699 0.001081815455108881 0.9986162781715393 -0.052577465772628784 223.0 54.0 1.0 1.0
-0.87838078 0.31035861 0.63667357 -0.0065400125458836555 0.9985049366950989 -0.05426929146051407 220.0 54.0 1.0 1.0
-0.8965978 0.32535428 0.69540894 -0.00653926283121109 0.9983905553817749 -0.05633463338017464 238.0 55.0 1.0 1.0
-0.87246144 0.30633143 0.67423522 0.003471195697784424 0.9989191889762878 -0.04635054990649223 223.0 55.0 1.0 1.0
-0.87656969 0.31563884 0.72481865 0.003471358912065625 0.9989661574363708 -0.04532710090279579 220.0 56.0 1.0 1.0
-0.88278186 0.30746546 0.7272976 -0.009974261745810509 0.9990965723991394 -0.04131185635924339 220.0 56.0 1.0 1.0
-0.86969095 0.31038696 0.76701111 0.0018240476492792368 0.9995350241661072 -0.030435893684625626 214.0 57.0 1.0 1.0
-0.88450682 0.30525208 0.77725387 0.0018240476492792368 0.9995350241661072 -0.030435893684625626 232.0 57.0 1.0 1.0
-0.8774339 0.31034553 0.82607859 0.015614456497132778 0.9998739957809448 -0.0028666192665696144 229.0 58.0 1.0 1.0
-0.88343745 0.30209154 0.82875681 0.015614456497132778 0.9998739957809448 -0.0028666192665696144 229.0 58.0 1.0 1.0
-0.87332731 0.30545318 0.87937742 0.003480586688965559 0.9991825222969055 -0.04027564078569412 223.0 59.0 1.0 1.0
-0.8874402 0.29997852 0.89042056 0.003480586688965559 0.9991825222969055 -0.04027564078569412 235.0 59.0 1.0 1.0
-0.88454068 0.30502999 0.95428139 0.0014916356885805726 0.9997034072875977 -0.02430899813771248 241.0 60.0 1.0 1.0
-0.87170017 0.29044345 0.93717307 0.0014916356885805726 0.9997034072875977 -0.02430899813771248 235.0 60.0 1.0 1.0
-0.88822681 0.30128875 1.0291913 -0.016263402998447418 0.9993146657943726 -0.03325201943516731 255.0 61.0 1.0 1.0
-0.88617289 0.29028434 1.0233036 -0.016263402998447418 0.9993146657943726 -0.03325201943516731 255.0 61.0 1.0 1.0
-0.87409246 0.29111904 1.0916736 -0.00829066801816225 0.997814953327179 -0.06554816663265228 250.0 62.0 1.0 1.0
-0.87459809 0.28114724 1.0886408 -0.00829066801816225 0.997814953327179 -0.06554816663265228 255.0 62.0 1.0 1.0
-0.87832284 0.28579441 1.1875784 0.017003705725073814 0.9958104491233826 -0.0898471251130104 255.0 63.0 1.0 1.0
-0.8835727 0.27729666 1.1907588 -0.01663241535425186 0.9937080144882202 -0.11076021939516068 255.0 63.0 1.0 1.0
-0.37613851 0.26493594 -0.60458958 0.11373664438724518 0.783996045589447 0.6102575659751892 235.0 0.0 1.0 1.0
-0.37889448 0.26098561 -0.60457802 0.08035632222890854 0.7663020491600037 0.6374354958534241 232.0 0.0 1.0 1.0
-0.40824828 0.28346041 -0.60083824 0.1908208280801773 0.023749331012368202 0.9813374876976013 226.0 1.0 1.0 1.0
-0.42385936 0.28772852 -0.61933112 0.1908208280801773 0.023749331012368202 0.9813374876976013 241.0 1.0 1.0 1.0
-0.4524627 0.31054828 -0.61436909 0.23222264647483826 -0.10985984653234482 0.9664385318756104 238.0 2.0 1.0 1.0
-0.44683701 0.29988045 -0.60241437 0.18969734013080597 -0.11089669167995453 0.9755597114562988 232.0 2.0 1.0 1.0
-0.47702944 0.32405868 -0.59943283 0.24095073342323303 -0.016276391223073006 0.970400869846344 229.0 3.0 1.0 1.0
-0.49195546 0.32669112 -0.61384177 0.2499404102563858 -0.010674790479242802 0.9682023525238037 229.0 3.0 1.0 1.0
-0.50504076 0.34031123 -0.58984828 0.20813044905662537 -0.034872908145189285 0.9774792194366455 223.0 4.0 1.0 1.0
-0.52298224 0.34445667 -0.60654324 0.23078031837940216 -0.03469124436378479 0.9723872542381287 235.0 4.0 1.0 1.0
-0.55238765 0.36928034 -0.60085696 0.24254049360752106 -0.06391347944736481 0.9680336117744446 241.0 5.0 1.0 1.0
-0.54380286 0.3553901 -0.58741516 0.24254049360752106 -0.06391347944736481 0.9680336117744446 232.0 5.0 1.0 1.0
-0.58257174 0.38686484 -0.59139168 0.10090503841638565 -0.023125385865569115 0.9946272373199463 238.0 6.0 1.0 1.0
-0.58659285 0.38074619 -0.59137398 0.11590724438428879 -0.023087359964847565 0.9929916858673096 235.0 6.0 1.0 1.0
-0.61485815 0.40603274 -0.58348835 0.09988593310117722 -0.14360077679157257 0.9845818877220154 238.0 7.0 1.0 1.0
-0.63752913 0.4114438 -0.60086745 0.03405104577541351 -0.07828839868307114 0.9963490962982178 253.0 7.0 1.0 1.0
-0.64946222 0.42680943 -0.57693869 0.07635646313428879 -0.09422413259744644 0.9926185011863708 247.0 8.0 1.0 1.0
-0.65930474 0.42344937 -0.58169186 0.07635646313428879 -0.09422413259744644 0.9926185011863708 250.0 8.0 1.0 1.0
-0.70328391 0.45990101 -0.58505267 0.07668479532003403 -0.01834268681704998 0.9968867301940918 255.0 9.0 1.0 1.0
-0.70252848 0.44898769 -0.58045608 0.12325701117515564 -0.06530488282442093 0.9902237057685852 253.0 9.0 1.0 1.0
-0.75483394 0.49193686 -0.58809799 0.11372839659452438 0.006630775984376669 0.9934898018836975 255.0 10.0 1.0 1.0
-0.74016088 0.47144261 -0.57275653 0.11372839659452438 0.006630775984376669 0.9934898018836975 250.0 10.0 1.0 1.0
-0.7841363 0.50914675 -0.57185 0.10597438365221024 0.0005215676501393318 0.9943687319755554 255.0 11.0 1.0 1.0
-0.78942627 0.50091046 -0.57182634 0.1291663497686386 -0.01616167649626732 0.9914913177490234 255.0 11.0 1.0 1.0
-0.84229773 0.54504853 -0.57421714 0.12210126966238022 0.03536178916692734 0.9918875098228455 255.0 12.0 1.0 1.0
-0.83621943 0.52879488 -0.56623614 0.12210126966238022 0.03536178916692734 0.9918875098228455 255.0 12.0 1.0 1.0
-0.89777809 0.57942194 -0.571998 0.1419951617717743 0.0018319700611755252 0.9898656010627747 255.0 13.0 1.0 1.0
-0.88589412 0.55872649 -0.56063288 0.13253585994243622 0.011472349055111408 0.9911118149757385 255.0 13.0 1.0 1.0
-0.91749364 0.59086889 -0.54543185 0.09979371726512909 -0.024643423035740852 0.994702935218811 255.0 14.0 1.0 1.0
-0.9478671 0.59644747 -0.55972558 0.09979371726512909 -0.024643423035740852 0.994702935218811 255.0 14.0 1.0 1.0
-0.99449617 0.63899094 -0.55058813 0.04203549399971962 0.9941453337669373 0.0995391234755516 255.0 15.0 1.0 1.0
-1.0042058 0.63046902 -0.5522489 0.04203549399971962 0.9941453337669373 0.0995391234755516 255.0 15.0 1.0 1.0
-0.97726893 0.38289279 -0.45463517 0.0067829554900527 0.9993332624435425 -0.03587597981095314 255.0 16.0 1.0 1.0
-0.98808771 0.37523773 -0.45779184 0.0067829554900527 0.9993332624435425 -0.03587597981095314 255.0 16.0 1.0 1.0
-0.99491251 0.39107338 -0.42891717 0.005535532720386982 0.9995512962341309 -0.02943742461502552 255.0 17.0 1.0 1.0
-0.99548137 0.37931699 -0.42739877 0.005535532720386982 0.9995512962341309 -0.02943742461502552 255.0 17.0 1.0 1.0
-0.98042667 0.38686636 -0.39009801 0.013543632812798023 0.9995025396347046 -0.028485789895057678 255.0 18.0 1.0 1.0
-0.9949351 0.38058731 -0.39424211 0.005537502001971006 0.9999068379402161 -0.012474092654883862 255.0 18.0 1.0 1.0
-0.9964149 0.39444464 -0.36432642 0.013519365340471268 0.9977115988731384 -0.06624764204025269 255.0 19.0 1.0 1.0
-0.99695098 0.38263601 -0.36300984 0.013519365340471268 0.9977115988731384 -0.06624764204025269 255.0 19.0 1.0 1.0
-1.0117847 0.40161389 -0.33819142 0.00203772378154099 0.9999948740005493 -0.0024750689044594765 255.0 20.0 1.0 1.0
-0.99096948 0.38142103 -0.32984334 0.00203772378154099 0.9999948740005493 -0.0024750689044594765 255.0 20.0 1.0 1.0
-0.9978562 0.39719024 -0.30297923 0.0309166070073843 0.9977052211761475 -0.060236454010009766 255.0 21.0 1.0 1.0
-0.95166093 0.36736983 -0.28772008 0.0309166070073843 0.9977052211761475 -0.060236454010009766 255.0 21.0 1.0 1.0
-0.96854585 0.38661608 -0.26473236 0.030920328572392464 0.9978253841400146 -0.058210454881191254 255.0 22.0 1.0 1.0
-0.99423569 0.38482386 -0.27062345 0.016988560557365417 0.9974592328071594 -0.0691833421587944 255.0 22.0 1.0 1.0
-0.98519367 0.39411309 -0.24022263 -0.01237310841679573 0.9998741149902344 -0.009924416430294514 255.0 23.0 1.0 1.0
-1.0001754 0.3879945 -0.24285154 0.015940342098474503 0.9998237490653992 -0.00992391537874937 255.0 23.0 1.0 1.0
-0.98313099 0.39396229 -0.21113436 -0.001498825615271926 0.9993488788604736 -0.03605072572827339 255.0 24.0 1.0 1.0
-0.98353803 0.38222766 -0.21032339 -0.00924274604767561 0.9993072748184204 -0.03604922443628311 255.0 24.0 1.0 1.0
-0.97296107 0.39076155 -0.18087246 -0.00924274604767561 0.9993072748184204 -0.03604922443628311 255.0 25.0 1.0 1.0
-0.98434061 0.38340297 -0.1822101 -0.0009994808351621032 0.9996126890182495 -0.02781415358185768 255.0 25.0 1.0 1.0
-0.99880254 0.40178832 -0.15717867 -0.0009991292608901858 0.9992610812187195 -0.038422539830207825 255.0 26.0 1.0 1.0
-0.99188119 0.38700175 -0.1554115 -0.0009991292608901858 0.9992610812187195 -0.038422539830207825 255.0 26.0 1.0 1.0
-0.98362935 0.39617455 -0.12719415 0.0038476523477584124 0.9993997812271118 -0.03442932292819023 255.0 27.0 1.0 1.0
-0.97661334 0.38152754 -0.12573171 0.0038476523477584124 0.9993997812271118 -0.03442932292819023 255.0 27.0 1.0 1.0
-0.96764511 0.39041647 -0.098033115 0.00575356837362051 0.9991773962974548 -0.04014197736978531 255.0 28.0 1.0 1.0
-0.97909099 0.38315398 -0.098759353 0.00575356837362051 0.9991773962974548 -0.04014197736978531 255.0 28.0 1.0 1.0
-0.96587932 0.38997301 -0.07096152 0.00014976128295529634 0.9983751773834229 -0.05698316916823387 255.0 29.0 1.0 1.0
-0.9810524 0.38418713 -0.071757317 -0.017113178968429565 0.9949284195899963 -0.09911942481994629 255.0 29.0 1.0 1.0
-0.97451246 0.39391315 -0.044691555 -0.0008506345911882818 0.9997392296791077 -0.022819651290774345 255.0 30.0 1.0 1.0
-0.98601776 0.38659251 -0.045009103 -0.0008506345911882818 0.9997392296791077 -0.022819651290774345 255.0 30.0 1.0 1.0
-0.97153181 0.39278188 -0.017864155 -0.009224816225469112 0.9972618818283081 -0.07337304204702377 255.0 31.0 1.0 1.0
-0.97185564 0.38112697 -0.01776723 -0.009224816225469112 0.9972618818283081 -0.07337304204702377 255.0 31.0 1.0 1.0
-0.96866179 0.61661226 0.0093575791 0.027437850832939148 0.9974304437637329 -0.06617992371320724 255.0 32.0 1.0 1.0
-0.96825677 0.60221261 0.0093253814 0.023044820874929428 0.9983293414115906 -0.05298629403114319 255.0 32.0 1.0 1.0
-0.97802782 0.62312526 0.038979787 0.027478264644742012 0.998899519443512 -0.038008224219083786 255.0 33.0 1.0 1.0
-0.94373512 0.58753204 0.037419654 0.027478264644742012 0.998899519443512 -0.038008224219083786 255.0 33.0 1.0 1.0
-1.0003232 0.63763165 0.070145436 0.013805009424686432 0.9979589581489563 -0.06234859302639961 255.0 34.0 1.0 1.0
-0.96623409 0.60182375 0.067364179 0.013805009424686432 0.9979589581489563 -0.06234859302639961 255.0 34.0 1.0 1.0
-0.93792665 0.59802353 0.094333708 0.02335967682301998 0.9991553425788879 -0.033808983862400055 255.0 35.0 1.0 1.0
-0.97459096 0.60710108 0.097386524 0.02335967682301998 0.9991553425788879 -0.033808983862400055 255.0 35.0 1.0 1.0
-0.98901361 0.63109553 0.12973741 0.02335967682301998 0.9991553425788879 -0.033808983862400055 255.0 36.0 1.0 1.0
-0.94491428 0.58919448 0.1231991 0.02335967682301998 0.9991553425788879 -0.033808983862400055 255.0 36.0 1.0 1.0
-0.96222466 0.61459523 0.15612538 0.019828766584396362 0.9993387460708618 -0.030479535460472107 255.0 37.0 1.0 1.0
-0.96522838 0.60238469 0.15561412 0.019828766584396362 0.9993387460708618 -0.030479535460472107 255.0 37.0 1.0 1.0
-0.94154871 0.6021952 0.1821083 0.0042101358994841576 0.99942547082901 -0.03363044932484627 255.0 38.0 1.0 1.0
-0.97123945 0.60691994 0.18662694 0.006986617110669613 0.998114287853241 -0.06098402664065361 255.0 38.0 1.0 1.0
-0.95681852 0.61273146 0.21526495 0.019132215529680252 0.9982179403305054 -0.05652347579598427 255.0 39.0 1.0 1.0
-0.94316196 0.59018332 0.21083626 0.020358946174383163 0.9979784488677979 -0.060203876346349716 255.0 39.0 1.0 1.0
-0.93838221 0.60149843 0.2412511 0.019145449623465538 0.998908519744873 -0.042603544890880585 255.0 40.0 1.0 1.0
-0.97113752 0.60820878 0.24803528 0.019145449623465538 0.998908519744873 -0.042603544890880585 255.0 40.0 1.0 1.0
-0.9454115 0.60701299 0.27400407 0.01345411129295826 0.9996938705444336 -0.020768828690052032 255.0 41.0 1.0 1.0
-0.93852091 0.58882445 0.27024788 0.01345411129295826 0.9996938705444336 -0.020768828690052032 255.0 41.0 1.0 1.0
-0.95814455 0.61620486 0.30937651 0.0005622261669486761 0.9994802474975586 -0.032232314348220825 255.0 42.0 1.0 1.0
-0.94490141 0.59382522 0.30312443 0.0005622261669486761 0.9994802474975586 -0.032232314348220825 255.0 42.0 1.0 1.0
-0.93425542 0.60211742 0.33361512 0.010932854376733303 0.9976766705513 -0.06724292039871216 255.0 43.0 1.0 1.0
-0.96319991 0.60656375 0.34168229 0.014189411886036396 0.9969311356544495 -0.07698686420917511 255.0 43.0 1.0 1.0
-0.93553877 0.60419029 0.36664125 0.01093944814056158 0.9982783794403076 -0.05762619897723198 255.0 44.0 1.0 1.0
-0.93857872 0.59232819 0.36541998 0.01093944814056158 0.9982783794403076 -0.05762619897723198 255.0 44.0 1.0 1.0
-0.9485606 0.61385119 0.4057076 0.0007215525838546455 0.9963498115539551 -0.08536145091056824 255.0 45.0 1.0 1.0
-0.92944217 0.58780229 0.39493239 -0.004734487272799015 0.9967881441116333 -0.07994265109300613 255.0 45.0 1.0 1.0
-0.92909348 0.60275692 0.43129107 -0.004376085475087166 0.99448162317276 -0.10481879860162735 255.0 46.0 1.0 1.0
