ply
format ascii 1.0
element vertex 434
property float x
property float y
property float z
property float nx
property float ny
property float nz
property float intensity
property float ring
property float return
property float label
end_header
5.4764009 1.6784472 1.2305095 -0.154366135597229 -0.9324018359184265 0.3267996311187744 32.0 40.0 1.0 5.0
5.5778308 1.6417476 1.4086579 -0.00860501453280449 -0.9788417816162109 -0.20443733036518097 31.0 41.0 1.0 5.0
5.5007896 1.6817564 1.3935932 -0.00860501453280449 -0.9788417816162109 -0.20443733036518097 32.0 41.0 1.0 5.0
5.5901399 1.6411467 1.5728575 -0.026764433830976486 -0.9758115410804749 -0.21696895360946655 30.0 42.0 1.0 5.0
5.5356393 1.6882377 1.5624357 0.014689402654767036 -0.9823563694953918 -0.18644054234027863 31.0 42.0 1.0 5.0
5.4762197 1.6023175 1.7033964 -0.04931912198662758 -0.9738948941230774 -0.22157712280750275 30.0 43.0 1.0 5.0
5.462718 1.6606587 1.704542 -0.0043953415006399155 -0.9761751890182495 -0.21693876385688782 30.0 43.0 1.0 5.0
4.7795439 1.3927512 1.6309297 -0.08660511672496796 -0.5110048651695251 -0.8552038073539734 139.0 44.0 1.0 1.0
4.7718821 1.4449053 1.6334213 -0.08797558397054672 -0.49662989377975464 -0.8634923696517944 148.0 44.0 1.0 1.0
4.4046273 1.2785944 1.6395489 -0.20165884494781494 -0.17736081779003143 -0.9632636904716492 202.0 45.0 1.0 1.0
4.4125328 1.3311818 1.647627 -0.17162901163101196 -0.16480346024036407 -0.9712792038917542 190.0 45.0 1.0 1.0
4.151228 1.199782 1.6758307 -0.05183198302984238 -0.640633225440979 -0.7660956382751465 244.0 46.0 1.0 1.0
4.1169319 1.236668 1.667156 -0.11359857767820358 -0.8984028100967407 -0.42422613501548767 220.0 46.0 1.0 1.0
3.9158063 1.1275055 1.7089206 -0.14097796380519867 0.037326179444789886 -0.9893088340759277 190.0 47.0 1.0 1.0
3.8931022 1.1652153 1.7042818 -0.12362103909254074 -0.007097476627677679 -0.9923040866851807 157.0 47.0 1.0 1.0
3.4601572 1.7902513 1.7653575 -0.09507825970649719 -0.05320637673139572 -0.9940468072891235 223.0 48.0 1.0 1.0
3.4379182 1.8246341 1.7637196 -0.1459718942642212 -0.1039392426609993 -0.983813464641571 223.0 48.0 1.0 1.0
3.2285845 1.6740472 1.7712768 -0.11218173056840897 -0.05249776318669319 -0.9922999739646912 244.0 49.0 1.0 1.0
3.2234764 1.7145119 1.7782896 -0.13823255896568298 -0.056831229478120804 -0.9887679219245911 241.0 49.0 1.0 1.0
3.0052588 1.5622138 1.7690877 -0.18067054450511932 -0.13011795282363892 -0.9748986959457397 235.0 50.0 1.0 1.0
2.9980223 1.5985895 1.7746501 -0.15570850670337677 -0.05213410034775734 -0.9864263534545898 244.0 50.0 1.0 1.0
2.8271756 1.4746853 1.7828772 -0.1139124184846878 -0.07039445638656616 -0.9909937381744385 255.0 51.0 1.0 1.0
2.8084161 1.5025169 1.7809365 -0.11118731647729874 -0.08588822931051254 -0.9900811314582825 244.0 51.0 1.0 1.0
2.6265676 1.3740004 1.7715727 -0.18666017055511475 -0.03371582180261612 -0.9818458557128906 247.0 52.0 1.0 1.0
2.6330998 1.4128186 1.7859358 -0.16683685779571533 0.0005641853203997016 -0.9859843254089355 255.0 52.0 1.0 1.0
2.4788802 1.3016878 1.7866031 -0.15471670031547546 -0.06349585205316544 -0.9859163761138916 255.0 53.0 1.0 1.0
2.4531667 1.321103 1.7780119 -0.20453481376171112 -0.08664128929376602 -0.9750173687934875 255.0 53.0 1.0 1.0
2.3255942 1.2267929 1.7909883 -0.1369297206401825 -0.06201525032520294 -0.9886376261711121 255.0 54.0 1.0 1.0
2.3038218 1.2462915 1.7842467 -0.14676879346370697 -0.06931915134191513 -0.9867389798164368 255.0 54.0 1.0 1.0
2.1680918 1.148838 1.7835537 -0.16954366862773895 -0.05335870012640953 -0.9840770363807678 255.0 55.0 1.0 1.0
2.1615331 1.1745512 1.7882618 -0.17724430561065674 -0.10789238661527634 -0.9782349467277527 255.0 55.0 1.0 1.0
2.0509763 1.0931212 1.8029579 -0.13899871706962585 -0.07229651510715485 -0.9876500368118286 255.0 56.0 1.0 1.0
2.044868 1.1175534 1.8078651 -0.13115908205509186 -0.04663974046707153 -0.9902635812759399 255.0 56.0 1.0 1.0
1.8848619 1.0109735 1.7719058 -0.20515970885753632 -0.08419922739267349 -0.9750999808311462 241.0 57.0 1.0 1.0
1.8983378 1.0440807 1.7948593 -0.12146735936403275 -0.017819460481405258 -0.9924355149269104 250.0 57.0 1.0 1.0
1.7798353 0.96088964 1.7908553 -0.1360720545053482 -0.06915010511875153 -0.9882827997207642 247.0 58.0 1.0 1.0
1.7931321 0.99259675 1.8147058 -0.13520333170890808 -0.07006379216909409 -0.9883374571800232 255.0 58.0 1.0 1.0
1.7013915 0.92616063 1.8368939 0.22030118107795715 -0.0680900365114212 -0.9730525016784668 255.0 59.0 1.0 1.0
1.6611478 0.92676979 1.8039012 0.23530739545822144 -0.06143705174326897 -0.9699772596359253 250.0 59.0 1.0 1.0
1.5512161 0.85268599 1.8015288 -0.3570557236671448 -0.06285984814167023 -0.9319655895233154 244.0 60.0 1.0 1.0
1.5689346 0.8841238 1.8328921 -0.3209969103336334 -0.022111251950263977 -0.9468221068382263 255.0 60.0 1.0 1.0
1.434244 0.79744726 1.7971921 -0.050961002707481384 -0.0027977698482573032 -0.9986966848373413 241.0 61.0 1.0 1.0
1.4280668 0.81373322 1.8001491 -0.4346436858177185 -0.0017707303632050753 -0.9006007313728333 244.0 61.0 1.0 1.0
1.3489108 0.75961113 1.8310335 0.3226788640022278 -0.0675920620560646 -0.9440919756889343 255.0 62.0 1.0 1.0
1.3251669 0.76452518 1.8096762 0.31594118475914 -0.05557388439774513 -0.9471497535705566 244.0 62.0 1.0 1.0
1.2258512 0.70101392 1.8127005 -0.19241146743297577 -0.0008364202221855521 -0.9813140034675598 255.0 63.0 1.0 1.0
1.2374073 0.72508693 1.8410797 -0.19185930490493774 -0.07570896297693253 -0.9784979224205017 255.0 63.0 1.0 1.0
1.1562784 0.25122038 -1.5620139 0.2525392770767212 0.12186282128095627 0.9598819613456726 255.0 0.0 1.0 1.0
1.1323197 0.25832215 -1.5333256 0.2525392770767212 0.12186282128095627 0.9598819613456726 190.0 0.0 1.0 1.0
1.2425516 0.27957168 -1.5466079 0.1507796198129654 0.0631411150097847 0.9865488409996033 255.0 1.0 1.0 1.0
1.2295694 0.29016912 -1.5342609 0.1507796198129654 0.0631411150097847 0.9865488409996033 247.0 1.0 1.0 1.0
1.3282651 0.30709302 -1.5329366 0.13894882798194885 -0.015793437138199806 0.9901736378669739 255.0 2.0 1.0 1.0
1.3222961 0.32035065 -1.5299491 0.13543152809143066 -0.016837572678923607 0.9906436800956726 255.0 2.0 1.0 1.0
1.4400318 0.34116957 -1.5449769 0.15668074786663055 0.157634899020195 0.9749884009361267 255.0 3.0 1.0 1.0
1.4309155 0.35487381 -1.5392021 0.09534525126218796 0.07129129022359848 0.9928881525993347 255.0 3.0 1.0 1.0
1.5379816 0.37156144 -1.539139 0.220200315117836 0.0067791566252708435 0.9754310846328735 255.0 4.0 1.0 1.0
1.5200231 0.38406217 -1.5251986 0.2342631071805954 0.006756351795047522 0.9721497893333435 253.0 4.0 1.0 1.0
1.64722 0.40472686 -1.5404298 0.1381860226392746 0.059714898467063904 0.9886044263839722 255.0 5.0 1.0 1.0
1.6284668 0.41820222 -1.526989 0.13800334930419922 0.07873134315013885 0.987297534942627 253.0 5.0 1.0 1.0
1.7536774 0.43735263 -1.5349883 0.13355252146720886 0.05590400844812393 0.989463746547699 255.0 6.0 1.0 1.0
1.7695318 0.46118647 -1.5531074 0.13844209909439087 0.06086936593055725 0.9884982705116272 255.0 6.0 1.0 1.0
1.8661643 0.47121331 -1.5307243 0.13755886256694794 0.08726567029953003 0.9866418838500977 253.0 7.0 1.0 1.0
1.8549792 0.489113 -1.5257468 0.10200319439172745 0.051362693309783936 0.9934571385383606 253.0 7.0 1.0 1.0
2.0065932 0.51223385 -1.5440166 0.09425299614667892 0.046364881098270416 0.994468092918396 255.0 8.0 1.0 1.0
2.0041146 0.5340665 -1.5464067 0.16130758821964264 0.11410251259803772 0.9802859425544739 255.0 8.0 1.0 1.0
2.1323822 0.55010033 -1.5398155 0.13473975658416748 0.07255581766366959 0.9882211089134216 255.0 9.0 1.0 1.0
2.1453795 0.57759941 -1.5535636 0.16062334179878235 0.07227279245853424 0.984366238117218 255.0 9.0 1.0 1.0
2.2947946 0.59656447 -1.5542952 0.1544632613658905 0.032906774431467056 0.9874504208564758 255.0 10.0 1.0 1.0
2.2786443 0.61790752 -1.547719 0.10472483187913895 0.020979372784495354 0.9942799806594849 255.0 10.0 1.0 1.0
2.4488385 0.64181232 -1.5551584 0.12677545845508575 0.032595064491033554 0.9913958311080933 253.0 11.0 1.0 1.0
2.4287436 0.66378796 -1.5467865 0.14205758273601532 0.053717125207185745 0.9883997440338135 250.0 11.0 1.0 1.0
2.6178417 0.69115609 -1.5564606 0.13300657272338867 0.03385390713810921 0.9905368089675903 255.0 12.0 1.0 1.0
2.6070199 0.71760875 -1.5544678 0.16212132573127747 0.07112910598516464 0.9842039346694946 255.0 12.0 1.0 1.0
2.7980564 0.74304354 -1.5566627 0.17543703317642212 0.0409468412399292 0.9836387634277344 255.0 13.0 1.0 1.0
2.7798438 0.76946074 -1.5509816 0.16901588439941406 -0.01404502708464861 0.9855132699012756 253.0 13.0 1.0 1.0
2.9797688 0.79525197 -1.5484967 0.13719937205314636 0.012999719008803368 0.9904581904411316 238.0 14.0 1.0 1.0
2.9711778 0.82642037 -1.5484966 0.1139739453792572 -0.009687325917184353 0.9934365153312683 244.0 14.0 1.0 1.0
3.1974173 0.85761434 -1.5491107 0.1969229280948639 -0.050621148198843 0.9791113138198853 235.0 15.0 1.0 1.0
3.1846745 0.89007378 -1.5474157 0.22322016954421997 -0.02044115960597992 0.9745537042617798 241.0 15.0 1.0 1.0
3.0233555 1.4989164 -1.4713491 0.1671752780675888 0.05302423611283302 0.9845003485679626 247.0 16.0 1.0 1.0
2.9845452 1.5188009 -1.460157 0.1143362894654274 0.01860171929001808 0.9932678937911987 241.0 16.0 1.0 1.0
3.2323229 1.5989199 -1.4568306 0.13576826453208923 0.052165646106004715 0.9893662929534912 220.0 17.0 1.0 1.0
3.2186055 1.6343752 -1.4583175 0.1410825401544571 0.024103738367557526 0.9897043704986572 232.0 17.0 1.0 1.0
3.503489 1.7284869 -1.4563491 0.15375986695289612 0.06794600933790207 0.9857693910598755 205.0 18.0 1.0 1.0
3.4683955 1.7565825 -1.4493568 0.14187923073768616 0.016600754112005234 0.9897447824478149 214.0 18.0 1.0 1.0
3.8069715 1.8740393 -1.4535047 0.16871705651283264 0.04210308566689491 0.9847649335861206 199.0 19.0 1.0 1.0
3.7667935 1.9035274 -1.4457203 0.14362359046936035 0.05484404042363167 0.9881114959716797 193.0 19.0 1.0 1.0
4.1738486 2.0509908 -1.4563965 0.1928313672542572 -0.056863825768232346 0.9795829057693481 244.0 20.0 1.0 1.0
4.1452327 2.0911419 -1.4539939 0.25830894708633423 -0.055532101541757584 0.9644649624824524 255.0 20.0 1.0 1.0
4.2326722 2.0753994 -1.3414166 0.916891872882843 -0.39749908447265625 -0.03610796108841896 255.0 21.0 1.0 1.0
4.1728392 2.1005173 -1.3293684 0.8288130164146423 -0.5591713190078735 -0.019908664748072624 255.0 21.0 1.0 1.0
4.2160516 2.0626044 -1.2028415 0.9014930129051208 -0.42883947491645813 -0.058370400220155716 255.0 22.0 1.0 1.0
4.1629872 2.0909345 -1.1938969 0.7726038098335266 -0.63016277551651 -0.07731932401657104 255.0 22.0 1.0 1.0
4.2091227 2.0555146 -1.0715673 0.8194662928581238 -0.5628108978271484 -0.10825305432081223 255.0 23.0 1.0 1.0
4.1698556 2.0907106 -1.0670971 0.7333751916885376 -0.6721751689910889 -0.1016923189163208 255.0 23.0 1.0 1.0
4.1949615 2.0458069 -0.94129437 0.8230701088905334 -0.5590420365333557 -0.10013771802186966 255.0 24.0 1.0 1.0
4.1486907 2.0772893 -0.93574947 0.7627934813499451 -0.6431883573532104 -0.06674470007419586 255.0 24.0 1.0 1.0
4.2063065 2.0476902 -0.81780529 0.7743265628814697 -0.6273395419120789 -0.08284644037485123 255.0 25.0 1.0 1.0
4.1598864 2.079246 -0.81297398 0.7356163859367371 -0.6743742227554321 -0.06393545866012573 255.0 25.0 1.0 1.0
4.1716628 2.0280058 -0.68767202 0.8091802597045898 -0.5756641626358032 -0.11763608455657959 255.0 26.0 1.0 1.0
4.1430268 2.0680282 -0.68648678 0.7280442118644714 -0.6833391189575195 -0.05476577952504158 255.0 26.0 1.0 1.0
4.1868315 2.0335703 -0.56870413 0.7890510559082031 -0.611061692237854 -0.06326156109571457 255.0 27.0 1.0 1.0
4.1616607 2.0755193 -0.56820649 0.6998775005340576 -0.7131847143173218 -0.039229683578014374 255.0 27.0 1.0 1.0
4.1781878 2.0266113 -0.4465794 0.7120095491409302 -0.6999528408050537 -0.0557522252202034 255.0 28.0 1.0 1.0
4.1281548 2.0559928 -0.4435057 0.652885377407074 -0.7564322352409363 -0.03938199207186699 255.0 28.0 1.0 1.0
4.1838923 2.0284543 -0.32695043 0.6627460718154907 -0.7464993000030518 -0.059214603155851364 255.0 29.0 1.0 1.0
4.1516199 2.066793 -0.32609659 0.6226451396942139 -0.781535267829895 -0.03893104940652847 255.0 29.0 1.0 1.0
4.1724372 2.0219405 -0.20716624 0.6323683261871338 -0.7704558372497559 -0.08067236840724945 255.0 30.0 1.0 1.0
4.1402178 2.0601518 -0.20661834 0.5607210993766785 -0.8268182277679443 -0.044310327619314194 255.0 30.0 1.0 1.0
4.1761928 2.0228345 -0.089054003 0.5992271304130554 -0.7976447343826294 -0.06848142296075821 255.0 31.0 1.0 1.0
4.1403766 2.0592935 -0.088734671 0.505810558795929 -0.8607211112976074 -0.05757490172982216 255.0 31.0 1.0 1.0
5.0587106 1.3917108 0.034070324 -0.026475727558135986 -0.9990745782852173 0.033895574510097504 11.0 32.0 1.0 2.0
5.0476093 1.4457031 0.034096953 -0.10715830326080322 -0.9882454872131348 0.10903137177228928 12.0 32.0 1.0 2.0
5.0473561 1.3857223 0.30104125 0.012694763951003551 -0.9999183416366577 -0.0014303938951343298 6.0 34.0 1.0 2.0
5.0439887 1.4417959 0.30173087 -0.06766430288553238 -0.9973796606063843 0.025598494336009026 9.0 34.0 1.0 2.0
5.065145 1.4459654 0.57405138 -0.13487409055233002 -0.9873504042625427 0.08335603773593903 7.0 36.0 1.0 2.0
5.1028628 1.3972323 0.71493167 -0.015227457508444786 -0.998725950717926 -0.04811100289225578 7.0 37.0 1.0 2.0
5.0576096 1.3819116 0.84581035 -0.11337374150753021 -0.9625981450080872 -0.24607150256633759 28.0 38.0 1.0 2.0
5.0199924 1.4282501 0.8419891 -0.1758401244878769 -0.9389855861663818 -0.29561156034469604 27.0 38.0 1.0 1.0
5.0356641 1.3730407 0.98052061 0.039535798132419586 -0.9532911777496338 0.29945430159568787 27.0 39.0 1.0 2.0
5.047379 1.4332336 0.98568982 0.05456008389592171 -0.9702835083007812 0.2357393354177475 29.0 39.0 1.0 2.0
5.1004667 1.388917 1.1356481 -0.14746762812137604 -0.9836568832397461 0.1033070757985115 9.0 40.0 1.0 2.0
5.7173367 1.6225492 1.2767726 0.003168542170897126 -0.9999834299087524 0.0048048594035208225 18.0 40.0 1.0 5.0
5.1348944 1.3945044 1.289126 -0.19152389466762543 -0.9797013998031616 -0.059191737323999405 19.0 41.0 1.0 2.0
7.5273128 2.0429144 2.1055894 -0.045063313096761703 -0.9741234183311462 -0.22147858142852783 19.0 42.0 1.0 5.0
5.6665158 1.5994924 1.5896007 -0.040404416620731354 -0.9738762378692627 -0.22345609962940216 22.0 42.0 1.0 5.0
5.4902253 1.4823895 1.6977391 -0.043677158653736115 -0.974050760269165 -0.2220749855041504 30.0 43.0 1.0 5.0
5.4816895 1.5418508 1.7000277 -0.04933016747236252 -0.9741581678390503 -0.22041456401348114 30.0 43.0 1.0 5.0
4.7674499 1.2815493 1.6172893 -0.10543369501829147 -0.5857076048851013 -0.8036355972290039 148.0 44.0 1.0 1.0
4.757339 1.3323992 1.6185344 -0.07096818834543228 -0.5913046002388 -0.8033195734024048 124.0 44.0 1.0 1.0
4.4124031 1.1812884 1.632869 -0.030212823301553726 -0.15092794597148895 -0.988083004951477 193.0 45.0 1.0 1.0
4.3851991 1.2233163 1.6274842 -0.15847064554691315 -0.057465095072984695 -0.9856899976730347 175.0 45.0 1.0 1.0
4.1467786 1.1049637 1.6643108 -0.03349967673420906 -0.6993933320045471 -0.7139514684677124 250.0 46.0 1.0 1.0
4.1528492 1.153318 1.6715409 -0.09600258618593216 -0.6791614294052124 -0.7276834845542908 247.0 46.0 1.0 1.0
3.903074 1.0358323 1.6934998 -0.13192370533943176 -0.07816541939973831 -0.988173246383667 184.0 47.0 1.0 1.0
3.9274578 1.086525 1.7089661 -0.08191312104463577 -0.07080844044685364 -0.9941208958625793 214.0 47.0 1.0 1.0
3.4741621 1.7062204 1.7538319 -0.13252206146717072 -0.08279243856668472 -0.9877161979675293 232.0 48.0 1.0 1.0
3.4625175 1.7457651 1.7571427 -0.15847717225551605 -0.03463629260659218 -0.9867549538612366 223.0 48.0 1.0 1.0
3.2501848 1.5998003 1.7642977 -0.08158382028341293 -0.09031784534454346 -0.9925656914710999 244.0 49.0 1.0 1.0
3.2427857 1.6385994 1.7695591 -0.17452383041381836 -0.077865831553936 -0.9815692901611328 244.0 49.0 1.0 1.0
3.0152276 1.4880087 1.7561542 0.00680350698530674 0.012099738232791424 -0.999903678894043 211.0 50.0 1.0 1.0
3.0309863 1.53557 1.7746699 -0.010941369459033012 -0.010945948772132397 -0.9998801946640015 241.0 50.0 1.0 1.0
2.8388317 1.4059209 1.7711922 -0.09963883459568024 -0.04696113243699074 -0.9939149022102356 250.0 51.0 1.0 1.0
2.8207581 1.4339427 1.7692506 -0.16041801869869232 -0.06117017939686775 -0.9851518869400024 241.0 51.0 1.0 1.0
2.654911 1.3188065 1.7715907 -0.13630641996860504 -0.06322387605905533 -0.9886472225189209 250.0 52.0 1.0 1.0
2.6408679 1.3464984 1.7715993 -0.12252501398324966 -0.04592648148536682 -0.9914022088050842 250.0 52.0 1.0 1.0
2.4786167 1.2359711 1.7672696 -0.12852677702903748 -0.07736357301473618 -0.988683819770813 253.0 53.0 1.0 1.0
2.4714468 1.2649134 1.7715778 -0.12056106328964233 -0.02875044383108616 -0.9922895431518555 253.0 53.0 1.0 1.0
2.33321 1.1689862 1.7775035 -0.1443088948726654 -0.09760673344135284 -0.9847069978713989 255.0 54.0 1.0 1.0
2.3324981 1.1994048 1.7865117 -0.1283409744501114 -0.05330078676342964 -0.9902967214584351 255.0 54.0 1.0 1.0
2.2033665 1.109154 1.792968 -0.11739586293697357 -0.02466975897550583 -0.9927787780761719 255.0 55.0 1.0 1.0
2.1800609 1.1261463 1.7835755 -0.16775761544704437 -0.0970265194773674 -0.9810419678688049 255.0 55.0 1.0 1.0
2.0369606 1.0313345 1.7711244 -0.1148599311709404 -0.036732565611600876 -0.992702305316925 250.0 56.0 1.0 1.0
2.0595679 1.0701898 1.8005286 -0.14978763461112976 -0.0721815750002861 -0.9860798716545105 255.0 56.0 1.0 1.0
1.9085083 0.97279763 1.7744677 -0.14727751910686493 -0.025854600593447685 -0.988757312297821 247.0 57.0 1.0 1.0
1.9117571 0.99988818 1.7872224 -0.14848220348358154 -0.02584989182651043 -0.9885771870613098 253.0 57.0 1.0 1.0
1.8130182 0.93041062 1.8041134 0.213328018784523 -0.022640593349933624 -0.9767183065414429 255.0 58.0 1.0 1.0
1.7766293 0.93523532 1.7776266 0.24527862668037415 -0.08196927607059479 -0.965981125831604 244.0 58.0 1.0 1.0
1.692248 0.87562466 1.8066553 -0.301986426115036 -0.07167602330446243 -0.9506139159202576 244.0 59.0 1.0 1.0
1.690578 0.89737904 1.8149111 0.22523021697998047 -0.07325443625450134 -0.9715478420257568 250.0 59.0 1.0 1.0
1.5688808 0.82011974 1.8015386 -0.3675168454647064 -0.04216305539011955 -0.9290606379508972 244.0 60.0 1.0 1.0
1.5551865 0.83379012 1.7958431 -0.4000796973705292 -0.061675265431404114 -0.9144028425216675 235.0 60.0 1.0 1.0
1.4483976 0.76606733 1.7942498 0.2642097473144531 -0.052052926272153854 -0.9630594849586487 244.0 61.0 1.0 1.0
1.4331089 0.77725589 1.7854017 -0.10159803926944733 -0.05369149520993233 -0.9933755993843079 241.0 61.0 1.0 1.0
1.3669434 0.73253524 1.8340933 -0.2207036018371582 -0.0688338652253151 -0.9729089736938477 255.0 62.0 1.0 1.0
1.3568512 0.74551332 1.8310469 0.3226788640022278 -0.0675920620560646 -0.9440919756889343 255.0 62.0 1.0 1.0
1.2253257 0.66696268 1.7906392 -0.5041519403457642 -0.015036182478070259 -0.8634840250015259 255.0 63.0 1.0 1.0
1.2331854 0.68820679 1.8127126 -0.5065435171127319 -0.01510751061141491 -0.8620820045471191 255.0 63.0 1.0 1.0
7.0503912 1.9235035 1.569981 -0.14746762812137604 -0.9836568832397461 0.1033070757985115 23.0 40.0 2.0 5.0
6.5298619 1.7759086 1.6394768 -0.19152389466762543 -0.9797013998031616 -0.059191737323999405 22.0 41.0 2.0 5.0
1.1543909 0.22553954 -1.5524359 0.10107995569705963 0.09857811033725739 0.9899824261665344 255.0 0.0 1.0 1.0
1.1542289 0.2381307 -1.5556245 0.30037736892700195 0.09450986981391907 0.949126660823822 255.0 0.0 1.0 1.0
1.2483423 0.25352341 -1.5465919 0.13327905535697937 0.01915377750992775 0.9908934831619263 255.0 1.0 1.0 1.0
1.248003 0.2671403 -1.5496798 0.13327905535697937 0.01915377750992775 0.9908934831619263 255.0 1.0 1.0 1.0
1.3450099 0.28149158 -1.5448717 0.16356252133846283 0.030321527272462845 0.9860668182373047 255.0 2.0 1.0 1.0
1.3522615 0.29792538 -1.5568248 0.1183212623000145 -0.015836112201213837 0.9928491711616516 255.0 2.0 1.0 1.0
1.4605817 0.31396332 -1.559397 0.20912088453769684 0.12083349376916885 0.9703956842422485 255.0 3.0 1.0 1.0
1.4274566 0.3223604 -1.5276337 0.15828987956047058 0.06867373734712601 0.9850016832351685 253.0 3.0 1.0 1.0
1.5484312 0.33993906 -1.541908 0.1504097431898117 0.038185399025678635 0.9878860116004944 255.0 4.0 1.0 1.0
1.5446869 0.35614359 -1.5419089 0.24914589524269104 0.037406809628009796 0.9677432775497437 255.0 4.0 1.0 1.0
1.6757522 0.37481114 -1.5592268 0.11336499452590942 0.03532032296061516 0.9929254055023193 255.0 5.0 1.0 1.0
1.6572354 0.38888785 -1.5457866 0.11412438750267029 0.035317230969667435 0.9928385019302368 255.0 5.0 1.0 1.0
1.7745408 0.40333173 -1.54532 0.1496608704328537 0.04886084422469139 0.9875293970108032 255.0 6.0 1.0 1.0
1.7582682 0.41901404 -1.5349674 0.1289844661951065 0.04900461062788963 0.9904350638389587 255.0 6.0 1.0 1.0
1.894119 0.43637061 -1.5456344 0.12110550701618195 0.034254442900419235 0.992048442363739 255.0 7.0 1.0 1.0
1.8984677 0.45843694 -1.5531017 0.12110550701618195 0.034254442900419235 0.992048442363739 255.0 7.0 1.0 1.0
2.0295694 0.47310588 -1.5535519 0.12699337303638458 0.04699065163731575 0.9907899498939514 255.0 8.0 1.0 1.0
2.0150664 0.49201876 -1.5463828 0.13881611824035645 0.05899350717663765 0.9885595440864563 255.0 8.0 1.0 1.0
2.1595821 0.50919068 -1.5512458 0.10906903445720673 0.05218534171581268 0.9926634430885315 255.0 9.0 1.0 1.0
2.1444921 0.52938974 -1.5443728 0.16273511946201324 0.10652513802051544 0.9809024333953857 255.0 9.0 1.0 1.0
2.3134956 0.54999012 -1.5586517 0.10024193674325943 -0.0029118373058736324 0.9949588179588318 250.0 10.0 1.0 1.0
2.3042657 0.57337475 -1.5564604 0.08313936740159988 0.02084425650537014 0.9963199496269226 255.0 10.0 1.0 1.0
2.4685721 0.59204417 -1.5593147 0.10350370407104492 0.01571437530219555 0.9945048689842224 247.0 11.0 1.0 1.0
2.4522274 0.61534655 -1.5530367 0.1101115345954895 0.01570316217839718 0.9937952160835266 244.0 11.0 1.0 1.0
2.6454217 0.63952971 -1.5644002 0.1468716859817505 -0.017407694831490517 0.9890023469924927 255.0 12.0 1.0 1.0
2.6384799 0.66720581 -1.5644009 0.11666611582040787 0.022613568231463432 0.9929137229919434 255.0 12.0 1.0 1.0
2.823472 0.68685877 -1.5623099 0.09839136153459549 0.004525724798440933 0.9951375126838684 253.0 13.0 1.0 1.0
2.8194368 0.71727568 -1.5642042 0.09839136153459549 0.004525724798440933 0.9951375126838684 255.0 13.0 1.0 1.0
3.0098553 0.73615944 -1.5556377 0.17001208662986755 0.004880982451140881 0.9854298233985901 241.0 14.0 1.0 1.0
2.9949598 0.76585466 -1.5520501 0.17377793788909912 0.0261347945779562 0.9844380021095276 238.0 14.0 1.0 1.0
3.2394934 0.79663652 -1.5609357 0.16426536440849304 -0.05093079432845116 0.985100507736206 232.0 15.0 1.0 1.0
3.2168472 0.82687873 -1.5541574 0.16426536440849304 -0.05093079432845116 0.985100507736206 232.0 15.0 1.0 1.0
3.0808015 1.4478661 -1.4841067 0.1496959775686264 0.05936795473098755 0.9869481325149536 250.0 16.0 1.0 1.0
3.0323882 1.4640278 -1.4681232 0.13479287922382355 0.040664467960596085 0.9900389909744263 232.0 16.0 1.0 1.0
3.2921338 1.5435892 -1.4687845 0.2107669562101364 0.034553296864032745 0.9769254922866821 220.0 17.0 1.0 1.0
3.2623384 1.5715157 -1.4627862 0.12973237037658691 0.05220821127295494 0.9901736378669739 226.0 17.0 1.0 1.0
3.556076 1.6627654 -1.4633045 0.17631183564662933 0.019732942804694176 0.9841365218162537 193.0 18.0 1.0 1.0
3.5282443 1.6950279 -1.4591056 0.18833684921264648 0.026847217231988907 0.981737494468689 199.0 18.0 1.0 1.0
3.8832686 1.8116328 -1.4677258 0.09416937828063965 0.031085386872291565 0.9950708150863647 196.0 19.0 1.0 1.0
3.8469386 1.843992 -1.461238 0.16395880281925201 0.06511181592941284 0.9843159914016724 190.0 19.0 1.0 1.0
4.2299104 1.9696603 -1.4611443 0.0801844596862793 -0.011085739359259605 0.9967184066772461 184.0 20.0 1.0 1.0
4.1986322 2.0088923 -1.4575484 0.1929740160703659 0.04193004593253136 0.9803075790405273 217.0 20.0 1.0 1.0
4.3660431 2.0286784 -1.3698308 0.9911795258522034 -0.12865625321865082 -0.031790390610694885 238.0 21.0 1.0 1.0
4.2958941 2.0509982 -1.3545018 0.9291821718215942 -0.36881178617477417 0.024462945759296417 255.0 21.0 1.0 1.0
4.3463287 2.0148225 -1.2276194 0.9846388101577759 -0.17100831866264343 -0.03524867817759514 253.0 22.0 1.0 1.0
4.2829494 2.0401568 -1.215699 0.9224637746810913 -0.37914353609085083 -0.07287470251321793 255.0 22.0 1.0 1.0
4.3221545 1.9998589 -1.0893642 0.9581167101860046 -0.2452285885810852 -0.14790286123752594 253.0 23.0 1.0 1.0
4.251617 2.0214806 -1.0768726 0.9300217032432556 -0.35868480801582336 -0.08002958446741104 255.0 23.0 1.0 1.0
4.3295422 2.0005052 -0.96180987 0.9495356678962708 -0.3010496199131012 -0.0880408063530922 255.0 24.0 1.0 1.0
4.2728682 2.0288506 -0.95389533 0.8600796461105347 -0.5029345750808716 -0.08555568009614944 255.0 24.0 1.0 1.0
4.3092289 1.9873867 -0.82947505 0.9578924179077148 -0.2721884548664093 -0.09140878170728683 255.0 25.0 1.0 1.0
4.2382774 2.0086849 -0.81982702 0.8422442078590393 -0.5366162061691284 -0.051650822162628174 255.0 25.0 1.0 1.0
4.2816291 1.9718434 -0.69877797 0.908441960811615 -0.40545642375946045 -0.10167786478996277 255.0 26.0 1.0 1.0
4.2427821 2.0080717 -0.69583541 0.8412311673164368 -0.5329887866973877 -0.09084545820951462 255.0 26.0 1.0 1.0
4.2863445 1.9721789 -0.57642871 0.8870034217834473 -0.45424601435661316 -0.08298000693321228 255.0 27.0 1.0 1.0
4.2366705 2.0033202 -0.57253903 0.8497421145439148 -0.517955482006073 -0.09828788042068481 255.0 27.0 1.0 1.0
4.2632709 1.9587729 -0.45113909 0.8515633344650269 -0.5072148442268372 -0.13256290555000305 255.0 28.0 1.0 1.0
4.2460265 2.0050092 -0.45151001 0.7902668118476868 -0.6075656414031982 -0.0796380266547203 255.0 28.0 1.0 1.0
4.2872219 1.9688923 -0.33168444 0.8282811641693115 -0.5551857948303223 -0.07562404125928879 255.0 29.0 1.0 1.0
4.2230105 1.9931544 -0.328309 0.7686908841133118 -0.6373123526573181 -0.05428919941186905 255.0 29.0 1.0 1.0
4.2612119 1.9559582 -0.20945346 0.8076349496841431 -0.5843775868415833 -0.07892146706581116 255.0 30.0 1.0 1.0
4.2151256 1.9884827 -0.20819344 0.7520256638526917 -0.6566726565361023 -0.05690882354974747 255.0 30.0 1.0 1.0
4.2650251 1.9567852 -0.090018637 0.822790265083313 -0.5636553764343262 -0.0728609561920166 255.0 31.0 1.0 1.0
4.2044506 1.982493 -0.089164287 0.7332406044006348 -0.6766803860664368 -0.06679804623126984 255.0 31.0 1.0 1.0
5.0210238 1.2687867 0.033686958 0.0034998864866793156 -0.9986104369163513 0.05258158594369888 14.0 32.0 1.0 2.0
5.04216 1.3305274 0.033920746 0.08400235325098038 -0.996270477771759 -0.019714944064617157 14.0 32.0 1.0 2.0
5.0848789 1.2831547 0.16773899 0.009806410409510136 -0.9899163842201233 0.14131270349025726 15.0 33.0 1.0 2.0
5.0903912 1.3414432 0.16837768 0.15244267880916595 -0.9858796000480652 0.06930092722177505 9.0 33.0 1.0 2.0
5.0598845 1.3305188 0.57021004 -0.1281856894493103 -0.9819210171699524 0.13928259909152985 10.0 36.0 1.0 2.0
5.0588007 1.2690303 0.84141117 -0.08313563466072083 -0.9962150454521179 -0.025378627702593803 91.0 38.0 1.0 1.0
5.0527806 1.3239255 0.84268427 -0.11492155492305756 -0.9933632016181946 -0.004748571198433638 82.0 38.0 1.0 1.0
5.0558486 1.265474 0.97910339 0.1259917914867401 -0.7663344144821167 0.6299664378166199 23.0 39.0 1.0 2.0
5.0422301 1.3183216 0.97910243 -0.09156661480665207 -0.6926200985908508 0.7154669761657715 25.0 39.0 1.0 2.0
5.1285911 1.2819149 1.1357086 -0.026461098343133926 -0.9985225796699524 -0.04745857045054436 11.0 40.0 1.0 2.0
5.1261425 1.3385051 1.1382278 0.09586077928543091 -0.9933788180351257 -0.06331922113895416 8.0 40.0 1.0 2.0
6.5205345 1.6275142 1.6282154 -0.0028530964627861977 -0.9958463907241821 -0.09100400656461716 24.0 41.0 1.0 5.0
5.1267157 1.3348336 1.2835355 -0.07910795509815216 -0.9963570237159729 0.0318533256649971 22.0 41.0 1.0 2.0
7.4224768 1.8484176 2.0650232 -0.08591050654649734 -0.9793128371238708 -0.18320998549461365 12.0 42.0 1.0 5.0
7.4885612 1.9484663 2.0889978 -0.07137954235076904 -0.978133499622345 -0.1953454315662384 15.0 42.0 1.0 5.0
5.4607067 1.3523815 1.6794987 -0.044681206345558167 -0.9740543365478516 -0.22185997664928436 31.0 43.0 1.0 5.0
5.4350309 1.4065564 1.6760651 -0.041476596146821976 -0.9742001891136169 -0.22184164822101593 32.0 43.0 1.0 5.0
4.7232971 1.1641401 1.5936888 -0.06552131474018097 -0.5409764647483826 -0.838481605052948 130.0 44.0 1.0 1.0
4.7622709 1.2268728 1.6111194 -0.11724596470594406 -0.5663687586784363 -0.8157694339752197 163.0 44.0 1.0 1.0
4.3997593 1.0796976 1.6194593 -0.15963926911354065 -0.07840336859226227 -0.9840570092201233 127.0 45.0 1.0 1.0
4.4063573 1.1303924 1.6261894 -0.08801211416721344 -0.07787511497735977 -0.9930707216262817 127.0 45.0 1.0 1.0
4.1220822 1.0064015 1.6455615 -0.013217386789619923 -0.8122761845588684 -0.5831232070922852 232.0 46.0 1.0 1.0
4.1220655 1.0522662 1.6498986 -0.04230422526597977 -0.7376288175582886 -0.6738797426223755 229.0 46.0 1.0 1.0
3.8846514 0.94431365 1.6765332 -0.08078408241271973 -0.10442844033241272 -0.9912459850311279 184.0 47.0 1.0 1.0
3.9066207 0.99315679 1.6904522 -0.15340493619441986 -0.05964978411793709 -0.9863614439964294 199.0 47.0 1.0 1.0
3.4927738 1.6254845 1.7456076 -0.1183648556470871 -0.044486600905656815 -0.9919731020927429 232.0 48.0 1.0 1.0
3.4853251 1.6666719 1.7505674 -0.20616169273853302 -0.02025168016552925 -0.978308379650116 232.0 48.0 1.0 1.0
3.2342799 1.5085782 1.7380661 -0.12282505631446838 -0.05066969245672226 -0.991133987903595 235.0 49.0 1.0 1.0
3.2408962 1.5532624 1.7503279 -0.1431014984846115 -0.06176121532917023 -0.9877790808677673 238.0 49.0 1.0 1.0
3.0330391 1.4186101 1.7487739 -0.3185938596725464 -0.02958529070019722 -0.9474295377731323 223.0 50.0 1.0 1.0
3.0083535 1.4456244 1.7432307 -0.15883059799671173 -0.029975153505802155 -0.9868507385253906 202.0 50.0 1.0 1.0
2.8488543 1.3373208 1.7595085 -0.05905235558748245 -0.0622413270175457 -0.9963125586509705 247.0 51.0 1.0 1.0
2.8440309 1.3716191 1.7653691 -0.13061445951461792 -0.07823223620653152 -0.988341748714447 255.0 51.0 1.0 1.0
2.6479602 1.2468375 1.749054 -0.1037340983748436 -0.023463523015379906 -0.9943282604217529 244.0 52.0 1.0 1.0
2.6531956 1.2834882 1.7613649 -0.1344655156135559 -0.054591622203588486 -0.9894133806228638 250.0 52.0 1.0 1.0
2.5041025 1.183905 1.7672875 -0.11086645722389221 -0.06594535708427429 -0.991645097732544 255.0 53.0 1.0 1.0
2.4914808 1.210025 1.7672949 -0.10513311624526978 -0.069371297955513 -0.9920356273651123 255.0 53.0 1.0 1.0
2.3543425 1.1185499 1.7752701 -0.081759974360466 -0.03142751008272171 -0.9961564540863037 255.0 54.0 1.0 1.0
2.3364787 1.1401849 1.770777 -0.0817839652299881 -0.02002733200788498 -0.996448814868927 255.0 54.0 1.0 1.0
2.1912625 1.0460216 1.764784 -0.05533655360341072 -0.013103715144097805 -0.9983817338943481 255.0 55.0 1.0 1.0
2.1859047 1.0717436 1.7694905 -0.10591719299554825 -0.013050002977252007 -0.9942892789840698 253.0 55.0 1.0 1.0
2.072485 0.99545747 1.7833878 -0.1008683517575264 -0.06494960933923721 -0.9927774667739868 255.0 56.0 1.0 1.0
2.0392156 1.0057931 1.7637957 -0.14537948369979858 -0.07975210249423981 -0.9861564040184021 238.0 56.0 1.0 1.0
1.9341477 0.93543047 1.7795804 0.2089444249868393 -0.0279556717723608 -0.977527916431427 255.0 57.0 1.0 1.0
1.9269145 0.95697731 1.7821361 0.2089444249868393 -0.0279556717723608 -0.977527916431427 255.0 57.0 1.0 1.0
1.8537625 0.90293401 1.8253205 0.2826877236366272 -0.0717814713716507 -0.9565223455429077 255.0 58.0 1.0 1.0
1.8387692 0.91955549 1.8200277 0.2823013663291931 -0.08871235698461533 -0.9552150964736938 255.0 58.0 1.0 1.0
1.6843468 0.82717776 1.7791672 -0.3977983593940735 -0.03710469231009483 -0.9167221784591675 229.0 59.0 1.0 1.0
1.6806813 0.8473717 1.7846725 -0.28431597352027893 -0.05238615348935127 -0.9572982788085938 235.0 59.0 1.0 1.0
1.5733225 0.78089207 1.7872959 -0.0974246934056282 -0.026240484789013863 -0.9948968887329102 238.0 60.0 1.0 1.0
1.5599841 0.79471546 1.7815999 -0.10931342840194702 -0.0382455512881279 -0.9932712912559509 232.0 60.0 1.0 1.0
1.4931479 0.75036836 1.8296736 0.24304410815238953 -0.0035361615009605885 -0.9700087904930115 255.0 61.0 1.0 1.0
1.4683677 0.75717634 1.8090204 0.24947480857372284 -0.06082223728299141 -0.9664693474769592 250.0 61.0 1.0 1.0
1.3660479 0.69555146 1.8127393 -0.18582887947559357 -0.032533321529626846 -0.9820433855056763 255.0 62.0 1.0 1.0
1.360888 0.71099013 1.8157959 -0.2207036018371582 -0.0688338652253151 -0.9729089736938477 255.0 62.0 1.0 1.0
1.2391733 0.64125931 1.7906469 -0.20787601172924042 -0.04287533089518547 -0.977215051651001 255.0 63.0 1.0 1.0
1.2431408 0.65999985 1.8064147 -0.5268700122833252 -0.03725555166602135 -0.8491289615631104 255.0 63.0 1.0 1.0
7.8004403 1.9575043 1.5108218 0.1259917914867401 -0.7663344144821167 0.6299664378166199 15.0 39.0 2.0 5.0
6.9754992 1.7469275 1.5448613 -0.026461098343133926 -0.9985225796699524 -0.04745857045054436 23.0 40.0 2.0 5.0
7.0134687 1.8347604 1.5574615 0.09586077928543091 -0.9933788180351257 -0.06331922113895416 23.0 40.0 2.0 5.0
6.5293546 1.7026074 1.6348439 -0.07910795509815216 -0.9963570237159729 0.0318533256649971 20.0 41.0 2.0 5.0
1.163824 0.20221232 -1.5587956 0.1208331510424614 -0.029346229508519173 0.9922389984130859 255.0 0.0 1.0 1.0
1.1615435 0.21439707 -1.5587969 0.12004702538251877 0.11755581200122833 0.985783576965332 255.0 0.0 1.0 1.0
1.2560853 0.22783127 -1.5496624 0.13386864960193634 0.023874344304203987 0.9907113909721375 255.0 1.0 1.0 1.0
1.2560261 0.2414784 -1.5527503 0.13327905535697937 0.01915377750992775 0.9908934831619263 255.0 1.0 1.0 1.0
1.3534276 0.25380528 -1.5478421 0.22867144644260406 0.08303215354681015 0.9699562788009644 255.0 2.0 1.0 1.0
1.3375715 0.26529986 -1.5329034 0.16356252133846283 0.030321527272462845 0.9860668182373047 255.0 2.0 1.0 1.0
1.4643294 0.2828016 -1.5564905 0.11828400939702988 0.0999055951833725 0.9879412055015564 255.0 3.0 1.0 1.0
1.4530623 0.29641989 -1.5478288 0.14061464369297028 0.12233784049749374 0.9824769496917725 255.0 3.0 1.0 1.0
1.5610386 0.30861831 -1.5474643 0.1788647621870041 -0.006274727173149586 0.9838536977767944 255.0 4.0 1.0 1.0
1.5548178 0.32435519 -1.5446775 0.17846697568893433 0.06694930046796799 0.9816656112670898 255.0 4.0 1.0 1.0
1.6805406 0.33907163 -1.5565172 0.13686522841453552 0.06604652106761932 0.9883854389190674 255.0 5.0 1.0 1.0
1.6681168 0.35476559 -1.5484539 0.1435960978269577 0.06598296016454697 0.9874342679977417 255.0 5.0 1.0 1.0
1.8007106 0.36988851 -1.5608275 0.11126933991909027 0.0574442595243454 0.9921287298202515 255.0 6.0 1.0 1.0
1.7966392 0.38873336 -1.5608288 0.15770690143108368 0.05707984417676926 0.9858348369598389 255.0 6.0 1.0 1.0
1.9244866 0.40121892 -1.5630322 0.11738215386867523 0.021050093695521355 0.9928637742996216 255.0 7.0 1.0 1.0
1.9139693 0.41998795 -1.5580558 0.1471240222454071 0.060692720115184784 0.9872542023658752 255.0 7.0 1.0 1.0
2.05178 0.43324304 -1.5630863 0.12242983281612396 0.07087711989879608 0.9899430871009827 255.0 8.0 1.0 1.0
2.0063653 0.44549778 -1.5320183 0.09890489280223846 0.04714193195104599 0.9939796924591064 253.0 8.0 1.0 1.0
2.1763849 0.46529064 -1.5558013 0.10337948799133301 0.03429395332932472 0.9940505623817444 255.0 9.0 1.0 1.0
2.1840782 0.49099207 -1.5649675 0.08747609704732895 0.018255122005939484 0.9959993958473206 255.0 9.0 1.0 1.0
2.3508556 0.50720453 -1.5761594 0.14300936460494995 0.08061523735523224 0.9864327311515808 255.0 10.0 1.0 1.0
2.315974 0.52503473 -1.5564321 0.12367003411054611 -0.002904111985117197 0.9923191666603088 250.0 10.0 1.0 1.0
2.4972754 0.54394603 -1.5697486 0.12636056542396545 0.04281526803970337 0.9910600185394287 255.0 11.0 1.0 1.0
2.4913435 0.57007569 -1.5697501 0.08120260387659073 -0.00677828025072813 0.9966745376586914 255.0 11.0 1.0 1.0
2.6618249 0.5847885 -1.5663602 0.11334513872861862 0.018970703706145287 0.9933745861053467 253.0 12.0 1.0 1.0
2.6520791 0.61184824 -1.5643688 0.1465861052274704 0.06470587104558945 0.9870793223381042 250.0 12.0 1.0 1.0
2.8408799 0.62839568 -1.5641686 0.13662132620811462 -0.012256898917257786 0.9905475378036499 241.0 13.0 1.0 1.0
2.8443332 0.66054177 -1.5698509 0.15857139229774475 0.017522936686873436 0.9871920347213745 253.0 13.0 1.0 1.0
3.052716 0.67930442 -1.5699539 0.11094928532838821 0.011011427268385887 0.9937650561332703 241.0 14.0 1.0 1.0
3.0453362 0.71124309 -1.5699555 0.11324083805084229 0.005839119199663401 0.9935504198074341 244.0 14.0 1.0 1.0
3.2945406 0.73747766 -1.5795377 0.13989414274692535 -0.03589509427547455 0.9895156025886536 244.0 15.0 1.0 1.0
3.2512875 0.76356769 -1.5625923 0.1944836974143982 -0.035559382289648056 0.9802610278129578 223.0 15.0 1.0 1.0
3.1173398 1.3860761 -1.4872776 0.1544657200574875 0.03246581554412842 0.9874646067619324 247.0 16.0 1.0 1.0
3.0792367 1.4079182 -1.4760877 0.12502098083496094 0.05013730004429817 0.990886390209198 229.0 16.0 1.0 1.0
3.351032 1.4864531 -1.4807359 0.12298513948917389 0.05968283489346504 0.990612268447876 217.0 17.0 1.0 1.0
3.3351841 1.5214702 -1.4807274 0.11741741001605988 0.08521166443824768 0.9894200563430786 229.0 17.0 1.0 1.0
3.6348364 1.6077904 -1.4814273 0.09247912466526031 0.038678377866744995 0.9949630498886108 205.0 18.0 1.0 1.0
3.5904329 1.6332967 -1.4702487 0.1926604062318802 0.06515777111053467 0.9790998101234436 196.0 18.0 1.0 1.0
3.9551446 1.745314 -1.480649 0.11865095794200897 0.0358419194817543 0.9922889471054077 187.0 19.0 1.0 1.0
3.9124517 1.7756467 -1.4715717 0.2123161405324936 0.061733461916446686 0.975249171257019 181.0 19.0 1.0 1.0
4.3227882 1.9038783 -1.4790307 0.061728086322546005 0.027706192806363106 0.9977083802223206 175.0 20.0 1.0 1.0
4.2608223 1.9300705 -1.4646844 0.16672886908054352 0.0065585533156991005 0.9859809875488281 160.0 20.0 1.0 1.0
4.6822948 2.0580816 -1.4551314 0.18286515772342682 -0.8668471574783325 0.4638279378414154 255.0 21.0 1.0 1.0
4.6183496 2.0879169 -1.4419914 0.9909856915473938 0.12238766252994537 0.05448377877473831 235.0 21.0 1.0 1.0
4.7423739 2.079634 -1.3268189 0.41070932149887085 -0.26816532015800476 0.8714386820793152 148.0 22.0 1.0 1.0
4.4378719 2.0012522 -1.2474209 0.9872944951057434 -0.04617755115032196 -0.15204356610774994 76.0 22.0 1.0 1.0
5.2806692 2.3123221 -1.3184149 0.0 0.0 0.0 47.0 23.0 1.0 0.0
4.4246674 1.9915156 -1.1098208 0.9939998388290405 -0.02107418142259121 -0.10733197629451752 214.0 23.0 1.0 1.0
5.1820974 2.265712 -1.1403682 0.9670349359512329 0.2354990541934967 -0.09686950594186783 28.0 24.0 1.0 1.0
4.4039464 1.979337 -0.97361833 0.9863817691802979 -0.13212548196315765 -0.09794896841049194 238.0 24.0 1.0 1.0
4.4547491 1.9426409 -0.84940106 0.9900535941123962 -0.026785479858517647 -0.13811703026294708 45.0 25.0 1.0 1.0
4.3694048 1.9600364 -0.83700132 0.9757590889930725 -0.20048682391643524 -0.08774560689926147 238.0 25.0 1.0 1.0
4.4490404 1.9373344 -0.71925902 0.9802399277687073 -0.13216166198253632 -0.14718300104141235 187.0 26.0 1.0 1.0
4.3923316 1.9675742 -0.71338683 0.964890718460083 -0.2366907298564911 -0.11385691910982132 255.0 26.0 1.0 1.0
4.4360285 1.9297687 -0.59093624 0.9764389991760254 -0.1310613751411438 -0.1714347004890442 226.0 27.0 1.0 1.0
4.3539209 1.9484283 -0.58268547 0.9751923084259033 -0.19401893019676208 -0.10656821727752686 255.0 27.0 1.0 1.0
4.4276052 1.9232991 -0.46411237 0.9729195833206177 -0.18861766159534454 -0.13360729813575745 250.0 28.0 1.0 1.0
4.3453784 1.941824 -0.45759827 0.9449691772460938 -0.3129282593727112 -0.09544198215007782 255.0 28.0 1.0 1.0
4.378891 1.9010979 -0.33557445 0.9809891581535339 -0.17434759438037872 -0.08522514253854752 247.0 29.0 1.0 1.0
4.3113246 1.9255997 -0.33192024 0.9181903600692749 -0.38861963152885437 -0.0768195390701294 255.0 29.0 1.0 1.0
4.3856592 1.9031134 -0.21352111 0.9628934264183044 -0.2562510371208191 -0.08468611538410187 255.0 30.0 1.0 1.0
4.3034143 1.9211191 -0.21047914 0.8629873394966125 -0.49204587936401367 -0.11464573442935944 255.0 30.0 1.0 1.0
4.3565664 1.8894954 -0.091057017 0.9323242902755737 -0.34321460127830505 -0.11390917003154755 255.0 31.0 1.0 1.0
4.2890081 1.9137294 -0.090050936 0.8567830920219421 -0.5108094215393066 -0.07068487256765366 255.0 31.0 1.0 1.0
5.0856295 1.1725042 0.034008931 -0.02684149704873562 -0.9993900060653687 0.02233811467885971 18.0 32.0 1.0 2.0
5.0418873 1.2181141 0.033798009 0.07768730074167252 -0.9874085187911987 0.13780109584331512 11.0 32.0 1.0 2.0
5.0631514 1.221423 0.16664709 -0.024908414110541344 -0.9786760807037354 0.2038937658071518 12.0 33.0 1.0 2.0
5.0701756 1.1661302 0.29932427 0.005578388459980488 -0.9998903274536133 -0.013719476759433746 14.0 34.0 1.0 2.0
5.0916896 1.1692591 0.56940567 0.006603384856134653 -0.9998764395713806 0.014267581515014172 11.0 36.0 1.0 2.0
11.246733 2.7181652 1.2610836 -0.06593827158212662 -0.991986095905304 0.10777658969163895 12.0 36.0 1.0 5.0
10.012004 2.3043699 1.388389 0.06311045587062836 -0.9973782896995544 0.03540748730301857 11.0 37.0 1.0 5.0
5.0690365 1.1593722 0.83892453 -0.045922406017780304 -0.9967003464698792 -0.06692907959222794 178.0 38.0 1.0 1.0
5.0642042 1.2142211 0.84019643 -0.08493103086948395 -0.9944926500320435 0.06141039356589317 145.0 38.0 1.0 1.0
5.1082187 1.1655973 0.98433435 0.008170226588845253 -0.7986597418785095 0.6017274856567383 20.0 39.0 1.0 2.0
5.0803561 1.2153143 0.98137814 -0.02541184425354004 -0.8278424143791199 0.56038498878479 20.0 39.0 1.0 2.0
5.1125402 1.1647209 1.1265298 -0.01767028495669365 -0.9988474249839783 0.04462818801403046 19.0 40.0 1.0 2.0
5.1341944 1.2264012 1.1340885 0.013049229979515076 -0.9996812343597412 0.021617693826556206 9.0 40.0 1.0 2.0
5.1019335 1.1585466 1.2675887 -0.06983107328414917 -0.9901794791221619 -0.12111286073923111 13.0 41.0 1.0 2.0
5.1196756 1.2191344 1.2751207 -0.07010379433631897 -0.9835420846939087 -0.16652458906173706 17.0 41.0 1.0 2.0
5.264689 1.1919403 1.4573411 -0.09367255121469498 -0.9832380414009094 -0.15642336010932922 14.0 42.0 1.0 2.0
7.4226966 1.7662122 2.0598977 -0.10033931583166122 -0.9817216992378235 -0.16172389686107635 13.0 42.0 1.0 5.0
5.4169626 1.2217208 1.6578263 -0.07381588965654373 -0.9797608256340027 -0.18606449663639069 31.0 43.0 1.0 5.0
5.4373417 1.2863384 1.6681211 -0.053767669945955276 -0.9742946624755859 -0.2187669277191162 31.0 43.0 1.0 5.0
4.7393742 1.0634145 1.5912564 -0.16024769842624664 -0.1526917666196823 -0.9751952886581421 142.0 44.0 1.0 1.0
4.7537808 1.1190962 1.5999701 -0.10115072131156921 -0.4840840697288513 -0.8691554069519043 163.0 44.0 1.0 1.0
4.377461 0.97750425 1.6033578 -0.09744077175855637 -0.03794380649924278 -0.9945177435874939 139.0 45.0 1.0 1.0
4.4072189 1.0327883 1.6181648 -0.08255231380462646 -0.06708967685699463 -0.9943259358406067 136.0 45.0 1.0 1.0
4.1351252 0.91834372 1.64272 -0.15174373984336853 -0.8969261050224304 -0.41532793641090393 241.0 46.0 1.0 1.0
4.1251945 0.96156031 1.6427178 -0.1766972690820694 -0.8240633606910706 -0.538235604763031 232.0 46.0 1.0 1.0
3.9721267 0.87815398 1.7059687 -0.21182920038700104 -0.046432528644800186 -0.9762029647827148 247.0 47.0 1.0 1.0
3.9446685 0.91545522 1.698233 -0.14236390590667725 -0.10370371490716934 -0.984366774559021 223.0 47.0 1.0 1.0
3.496206 1.5388218 1.730785 -0.11925893276929855 -0.030965298414230347 -0.9923801422119141 229.0 48.0 1.0 1.0
3.4864457 1.5783325 1.7340937 -0.123545341193676 -0.06323065608739853 -0.9903224110603333 223.0 48.0 1.0 1.0
3.2620201 1.4391713 1.7363409 -0.10251215845346451 -0.019265860319137573 -0.9945451617240906 241.0 49.0 1.0 1.0
3.2597709 1.4791908 1.7433507 -0.11630917340517044 -0.035036519169807434 -0.9925948977470398 244.0 49.0 1.0 1.0
3.0687051 1.3577826 1.7524987 -0.03787533566355705 -0.0022514353040605783 -0.9992799162864685 255.0 50.0 1.0 1.0
3.0413363 1.3838978 1.745104 -0.22149570286273956 -0.030436431989073753 -0.9746862053871155 244.0 50.0 1.0 1.0
2.857255 1.2689241 1.7478259 -0.11588191986083984 -0.06598343700170517 -0.9910688996315002 247.0 51.0 1.0 1.0
2.853241 1.3031163 1.7536856 -0.08075657486915588 -0.06601335108280182 -0.9945454597473145 250.0 51.0 1.0 1.0
2.6736362 1.1912227 1.7490743 -0.11162102222442627 -0.04261954128742218 -0.9928365349769592 255.0 52.0 1.0 1.0
2.667165 1.2219976 1.7531825 -0.11986913532018661 -0.03723011165857315 -0.9920914173126221 247.0 52.0 1.0 1.0
2.5161939 1.1257675 1.7587065 -0.08832349628210068 -0.05836883932352066 -0.9943802356719971 255.0 53.0 1.0 1.0
2.5103004 1.154856 1.7630132 -0.11265233904123306 -0.0659320205450058 -0.9914445877075195 255.0 53.0 1.0 1.0
2.3563151 1.0595466 1.7595373 -0.13634426891803741 -0.06145087257027626 -0.9887537956237793 255.0 54.0 1.0 1.0
2.3509979 1.0869218 1.7640438 -0.09088564664125443 -0.03697234392166138 -0.995174765586853 255.0 54.0 1.0 1.0
2.2098894 0.99866861 1.7624506 -0.1470007449388504 -0.1060389056801796 -0.983436107635498 255.0 55.0 1.0 1.0
2.2138772 1.0285892 1.7742066 -0.14006760716438293 -0.09903325885534286 -0.9851768016815186 255.0 55.0 1.0 1.0
2.0757833 0.94402719 1.7687045 0.19266650080680847 -0.066400907933712 -0.9790151119232178 255.0 56.0 1.0 1.0
2.0628378 0.96432543 1.7662604 -0.10099604725837708 -0.0411781370639801 -0.9940343499183655 255.0 56.0 1.0 1.0
1.9842268 0.90907043 1.807641 0.2809864580631256 -0.05532639101147652 -0.9581156969070435 255.0 57.0 1.0 1.0
1.963379 0.92446542 1.7974479 0.20823098719120026 -0.08713985234498978 -0.9741901755332947 253.0 57.0 1.0 1.0
1.8371053 0.8475526 1.7908928 -0.3458966910839081 -0.0900285542011261 -0.9339433312416077 241.0 58.0 1.0 1.0
1.8388524 0.87188745 1.8014954 -0.3780437111854553 -0.09839564561843872 -0.9205440282821655 250.0 58.0 1.0 1.0
1.696192 0.78935373 1.7736795 -0.08087580651044846 -0.09682288020849228 -0.992010235786438 235.0 59.0 1.0 1.0
1.695591 0.81083041 1.7819344 -0.3977983593940735 -0.03710469231009483 -0.9167221784591675 232.0 59.0 1.0 1.0
1.5920118 0.74908507 1.790158 0.26770299673080444 -0.05964622646570206 -0.9616535305976868 244.0 60.0 1.0 1.0
1.5839939 0.76567757 1.7901628 0.30519694089889526 -0.0251079760491848 -0.9519582390785217 241.0 60.0 1.0 1.0
1.4965246 0.71316969 1.8149282 -0.28212234377861023 -0.06710290908813477 -0.9570288062095642 255.0 61.0 1.0 1.0
1.491307 0.7299636 1.817884 -0.15509405732154846 -0.036889176815748215 -0.9872108101844788 255.0 61.0 1.0 1.0
1.3525984 0.6532433 1.7761264 -0.5495959520339966 -0.0035105482675135136 -0.8354232907295227 255.0 62.0 1.0 1.0
1.352527 0.67082018 1.7852862 -0.5299185514450073 -0.028430147096514702 -0.847571849822998 255.0 62.0 1.0 1.0
1.2656972 0.62186456 1.8095714 -0.12043183296918869 -0.05083790794014931 -0.9914190769195557 255.0 63.0 1.0 1.0
1.250264 0.63055933 1.7969648 -0.21470990777015686 -0.05001630261540413 -0.9753963947296143 255.0 63.0 1.0 1.0
11.185549 2.579704 1.2511833 0.006603384856134653 -0.9998764395713806 0.014267581515014172 13.0 36.0 2.0 5.0
7.7555819 1.7744759 1.494669 0.008170226588845253 -0.7986597418785095 0.6017274856567383 21.0 39.0 2.0 5.0
7.7976356 1.8702984 1.5064819 -0.028784703463315964 -0.7721699476242065 0.6347636580467224 19.0 39.0 2.0 5.0
6.9344673 1.5830976 1.528143 -0.01767028495669365 -0.9988474249839783 0.04462818801403046 24.0 40.0 2.0 5.0
6.9706531 1.6684037 1.539902 0.013049229979515076 -0.9996812343597412 0.021617693826556206 22.0 40.0 2.0 5.0
6.5305815 1.4855725 1.6226808 -0.06983107328414917 -0.9901794791221619 -0.12111286073923111 22.0 41.0 2.0 5.0
6.5486021 1.5620053 1.6311543 -0.0028530964627861977 -0.9958463907241821 -0.09100400656461716 22.0 41.0 2.0 5.0
1.1799413 0.17973821 -1.5747175 0.026729315519332886 -0.0295522753149271 0.9992057681083679 255.0 0.0 1.0 1.0
1.1636038 0.18965213 -1.5555937 0.1208331510424614 -0.029346229508519173 0.9922389984130859 255.0 0.0 1.0 1.0
1.2607878 0.20151131 -1.5496453 0.1762310266494751 0.06719811260700226 0.9820524454116821 255.0 1.0 1.0 1.0
1.2685283 0.2164928 -1.5619942 0.13386864960193634 0.023874344304203987 0.9907113909721375 255.0 1.0 1.0 1.0
1.363894 0.22634634 -1.5537999 0.17561614513397217 0.025932706892490387 0.9841171503067017 255.0 2.0 1.0 1.0
1.3639659 0.24110462 -1.5567895 0.22867144644260406 0.08303215354681015 0.9699562788009644 255.0 2.0 1.0 1.0
1.4728624 0.25259402 -1.5593586 0.11156107485294342 0.11509081721305847 0.9870705604553223 255.0 3.0 1.0 1.0
1.4727579 0.2685248 -1.5622479 0.11828400939702988 0.0999055951833725 0.9879412055015564 255.0 3.0 1.0 1.0
1.5730096 0.27692267 -1.5530199 0.1607244610786438 0.02018028311431408 0.9867929816246033 255.0 4.0 1.0 1.0
