ply
format ascii 1.0
element vertex 430
property float x
property float y
property float z
property float nx
property float ny
property float nz
property float intensity
property float ring
property float return
property float label
end_header
2.7119331 -1.1368254 1.4459643 -0.11992333084344864 -0.03675767406821251 -0.9921024441719055 255.0 49.0 1.0 1.0
2.7063091 -1.1679871 1.449702 -0.12692606449127197 -0.03672543168067932 -0.9912320971488953 255.0 49.0 1.0 1.0
2.5805504 -1.0770146 1.4739412 -0.10637497901916504 -0.13761891424655914 -0.9847565293312073 255.0 50.0 1.0 1.0
2.5527163 -1.096925 1.4648397 -0.10637497901916504 -0.13761891424655914 -0.9847565293312073 255.0 50.0 1.0 1.0
2.4399519 -1.0127801 1.4901298 -0.1485324203968048 -0.04021335765719414 -0.9880895614624023 255.0 51.0 1.0 1.0
2.4290488 -1.0382414 1.4903234 -0.14270812273025513 -0.03911236673593521 -0.9889916777610779 255.0 51.0 1.0 1.0
2.3124506 -0.95503736 1.5079293 -0.15391135215759277 -0.05079403892159462 -0.9867782592773438 255.0 52.0 1.0 1.0
2.2990057 -0.97781837 1.5060519 -0.15370464324951172 -0.07250574231147766 -0.9854530692100525 255.0 52.0 1.0 1.0
2.2012196 -0.90359181 1.5307348 -0.16227461397647858 -0.043451786041259766 -0.9857884049415588 255.0 53.0 1.0 1.0
2.1604903 -0.91338003 1.5093088 -0.159206360578537 -0.033835336565971375 -0.9866653084754944 247.0 53.0 1.0 1.0
2.0868375 -0.85049331 1.5470624 -0.1276102513074875 -0.053182248026132584 -0.9903976321220398 255.0 54.0 1.0 1.0
2.0685282 -0.86841118 1.5404482 -0.1612076610326767 -0.10631006956100464 -0.9811780452728271 255.0 54.0 1.0 1.0
1.9486053 -0.78828555 1.5396175 -0.13336874544620514 -0.08097042888402939 -0.9877533316612244 255.0 55.0 1.0 1.0
1.9519892 -0.81361395 1.5492097 -0.11577226966619492 -0.04507268965244293 -0.9922526478767395 255.0 55.0 1.0 1.0
1.8617414 -0.74647075 1.5675241 -0.49741342663764954 -0.08133833110332489 -0.863692045211792 255.0 56.0 1.0 1.0
1.8623906 -0.76952809 1.5750482 -0.4266943037509918 -0.0660308301448822 -0.9019821882247925 255.0 56.0 1.0 1.0
1.7997793 -0.71445936 1.6154814 -0.44690072536468506 -0.040573105216026306 -0.8936629295349121 255.0 57.0 1.0 1.0
1.7721277 -0.72502732 1.5977139 -0.44128701090812683 -0.033561140298843384 -0.8967382311820984 255.0 57.0 1.0 1.0
1.682768 -0.66073346 1.6116472 0.16028040647506714 -0.0929102748632431 -0.9826891422271729 247.0 58.0 1.0 1.0
1.6838863 -0.68167269 1.6197538 0.16028040647506714 -0.0929102748632431 -0.9826891422271729 255.0 58.0 1.0 1.0
1.5849357 -0.61446905 1.6226891 0.2032453417778015 -0.04445990175008774 -0.978117823600769 247.0 59.0 1.0 1.0
1.5674942 -0.62666196 1.6117815 0.2158176600933075 -0.06315086036920547 -0.9743894338607788 238.0 59.0 1.0 1.0
1.4815336 -0.56573498 1.6244082 -0.5445741415023804 -0.07903258502483368 -0.8349807858467102 250.0 60.0 1.0 1.0
1.4857539 -0.58531964 1.6359591 -0.22268544137477875 -0.06568074226379395 -0.9726753234863281 255.0 60.0 1.0 1.0
1.4184964 -0.53201979 1.6693528 -0.4986421465873718 -0.03273792564868927 -0.8661894798278809 255.0 61.0 1.0 1.0
1.385093 -0.5360238 1.6369194 -0.4986421465873718 -0.03273792564868927 -0.8661894798278809 250.0 61.0 1.0 1.0
1.3204216 -0.4852339 1.6737931 0.3273090124130249 -0.07231897860765457 -0.9421458840370178 255.0 62.0 1.0 1.0
1.3150903 -0.49899846 1.673897 -0.1394807994365692 -0.07376797497272491 -0.9874733090400696 255.0 62.0 1.0 1.0
1.212163 -0.43416089 1.662239 -0.009372379630804062 -0.025388188660144806 -0.9996338486671448 255.0 63.0 1.0 1.0
1.1981835 -0.44335106 1.6496974 0.4078850746154785 -0.05942653492093086 -0.9110972881317139 255.0 63.0 1.0 1.0
4.9367576 -2.1356544 -0.35799336 -0.9905208945274353 -0.05152985453605652 0.12733083963394165 181.0 29.0 1.0 1.0
4.969296 -2.149745 -0.22168194 -0.9397093057632446 -0.33808615803718567 -0.051420822739601135 133.0 30.0 1.0 2.0
10.476732 -4.5385847 -0.1807569 -0.658128023147583 -0.7509849667549133 0.05375044792890549 32.0 31.0 2.0 5.0
0.99444175 -0.78110725 -1.6510375 0.13216537237167358 0.04095001518726349 0.9903814792633057 255.0 0.0 1.0 1.0
0.9768219 -0.78384173 -1.6350741 0.13216537237167358 0.04095001518726349 0.9903814792633057 255.0 0.0 1.0 1.0
1.0846533 -0.83948612 -1.6474972 0.09382506459951401 -0.01587783731520176 0.9954621195793152 255.0 1.0 1.0 1.0
1.081874 -0.85558957 -1.6566309 0.07977001368999481 -0.001717083971016109 0.9968118071556091 255.0 1.0 1.0 1.0
1.1935954 -0.913055 -1.6715381 0.12605293095111847 0.12116070091724396 0.9845967292785645 255.0 2.0 1.0 1.0
1.1777351 -0.92055434 -1.6625121 0.11992978304624557 0.07737131416797638 0.9897629022598267 253.0 2.0 1.0 1.0
1.3044639 -0.9873153 -1.6895437 0.09079470485448837 0.062269456684589386 0.9939209222793579 255.0 3.0 1.0 1.0
1.2831488 -0.99239028 -1.6750617 0.09079470485448837 0.062269456684589386 0.9939209222793579 253.0 3.0 1.0 1.0
1.4040281 -1.0533049 -1.6889811 0.13412436842918396 0.05375346541404724 0.9895055890083313 250.0 4.0 1.0 1.0
1.4021181 -1.0749966 -1.6999633 0.10056890547275543 0.019773421809077263 0.9947336316108704 255.0 4.0 1.0 1.0
1.5346813 -1.1425544 -1.7187414 0.08454766869544983 0.03400544449687004 0.99583899974823 255.0 5.0 1.0 1.0
1.5227056 -1.1585727 -1.7186137 0.08454766869544983 0.03400544449687004 0.99583899974823 255.0 5.0 1.0 1.0
1.6476249 -1.2181022 -1.7211642 0.10564277321100235 0.05891263484954834 0.992657482624054 253.0 6.0 1.0 1.0
1.6348521 -1.2352992 -1.7210271 0.08249170333147049 0.03560630604624748 0.9959555268287659 250.0 6.0 1.0 1.0
1.7910953 -1.3165094 -1.7483071 0.13096117973327637 0.033291012048721313 0.9908283948898315 255.0 7.0 1.0 1.0
1.7823035 -1.3389896 -1.7531071 0.13096117973327637 0.033291012048721313 0.9908283948898315 255.0 7.0 1.0 1.0
1.918051 -1.4026265 -1.7517474 0.12038491666316986 0.045938603579998016 0.9916638135910034 247.0 8.0 1.0 1.0
1.9059073 -1.4245776 -1.7539634 0.1237846314907074 0.04591925069689751 0.9912460446357727 250.0 8.0 1.0 1.0
2.0727692 -1.5081092 -1.7719289 0.0827423483133316 0.007424789480865002 0.996543288230896 247.0 9.0 1.0 1.0
2.067482 -1.5376141 -1.7808619 0.08267630636692047 0.04062594100832939 0.995747983455658 250.0 9.0 1.0 1.0
2.2586775 -1.6375308 -1.8075936 0.12383169680833817 0.05333159491419792 0.9908691048622131 250.0 10.0 1.0 1.0
2.2226369 -1.6470853 -1.792168 0.1005437895655632 0.029786229133605957 0.9944866299629211 232.0 10.0 1.0 1.0
2.4230447 -1.7497183 -1.8142405 0.11478951573371887 0.035491906106472015 0.9927555918693542 223.0 11.0 1.0 1.0
2.4184036 -1.785179 -1.8244269 0.11485729366540909 0.008937645703554153 0.9933417439460754 235.0 11.0 1.0 1.0
2.6401043 -1.8996835 -1.8470095 0.13333424925804138 0.015162134543061256 0.9909550547599792 238.0 12.0 1.0 1.0
2.6145527 -1.9231086 -1.8428366 0.11496545374393463 0.015197296626865864 0.9932531714439392 223.0 12.0 1.0 1.0
2.8592699 -2.0515542 -1.8685554 0.11255437880754471 -0.008913146331906319 0.9936054944992065 202.0 13.0 1.0 1.0
2.8377142 -2.0813944 -1.8683184 0.14584264159202576 -0.009917818941175938 0.9892581701278687 202.0 13.0 1.0 1.0
3.1245861 -2.2364473 -1.9043751 0.136513814330101 0.026638135313987732 0.9902799129486084 187.0 14.0 1.0 1.0
3.1010823 -2.2690561 -1.9041163 0.10048876702785492 0.05401640757918358 0.9934708476066589 184.0 14.0 1.0 1.0
3.4200287 -2.4419355 -1.9401584 0.1818685531616211 0.053366780281066895 0.981873631477356 160.0 15.0 1.0 1.0
3.4148703 -2.4926367 -1.951624 0.1340543031692505 0.047023139894008636 0.9898577928543091 166.0 15.0 1.0 1.0
4.1057878 -1.8441865 -1.9408693 0.17562943696975708 -0.006765439640730619 0.984433114528656 154.0 16.0 1.0 1.0
4.08634 -1.8870926 -1.9405431 0.13429014384746552 0.038660697638988495 0.9901876449584961 139.0 16.0 1.0 1.0
4.5435748 -2.0459468 -1.9900581 0.10368992388248444 0.04805821552872658 0.9934478998184204 124.0 17.0 1.0 1.0
4.525363 -2.0949907 -1.9911826 0.16695329546928406 0.06718587875366211 0.9836730360984802 109.0 17.0 1.0 1.0
4.8146515 -2.1741822 -1.9457723 0.03327566012740135 -0.9898210167884827 0.13837304711341858 127.0 18.0 1.0 1.0
4.8019171 -2.229243 -1.9495425 0.012950388714671135 -0.974310576915741 0.22483599185943604 121.0 18.0 1.0 1.0
5.8901486 -2.6670754 -2.1873918 0.44047263264656067 -0.8933196663856506 0.08924038708209991 26.0 19.0 1.0 5.0
5.8757377 -2.7350314 -2.1920569 -0.22762420773506165 -0.7596469521522522 -0.6091991662979126 29.0 19.0 1.0 5.0
6.7635674 -3.0688696 -2.2955945 0.5094613432884216 -0.8426165580749512 -0.17448940873146057 29.0 20.0 1.0 5.0
6.7796426 -3.1621921 -2.3116119 -0.03731313347816467 -0.9971485733985901 -0.06559218466281891 28.0 20.0 1.0 5.0
7.9390635 -3.6096926 -2.4471381 0.6947465538978577 -0.7186068296432495 -0.030522329732775688 31.0 21.0 1.0 6.0
7.9323459 -3.7073417 -2.4562428 -0.10741806030273438 -0.9877092242240906 0.11354178935289383 29.0 21.0 1.0 6.0
4.7783985 -2.1742449 -1.3235322 -0.019346747547388077 -0.9990349411964417 0.03943214192986488 187.0 22.0 1.0 1.0
8.2771759 -3.8755903 -2.3060737 -0.2481185346841812 -0.957346498966217 0.14807023108005524 26.0 22.0 1.0 6.0
4.8212323 -2.1967435 -1.190228 0.30824244022369385 -0.9512797594070435 -0.0073024556040763855 232.0 23.0 1.0 1.0
8.8424196 -4.1461301 -2.1962194 -0.3898509442806244 -0.9208751320838928 -0.0022943317890167236 27.0 23.0 1.0 6.0
4.8362608 -2.2055748 -1.0504276 0.30824244022369385 -0.9512797594070435 -0.0073024556040763855 241.0 24.0 1.0 1.0
8.8718081 -4.1635761 -1.9389554 -0.23617888987064362 -0.9176406860351562 0.3196170926094055 26.0 24.0 1.0 6.0
4.8440232 -2.2121243 -0.90947604 0.18721865117549896 -0.981523334980011 -0.03951231762766838 232.0 25.0 1.0 1.0
4.849144 -2.2761564 -0.91449612 -0.0671287328004837 -0.9931501150131226 0.09563758224248886 8.0 25.0 1.0 2.0
4.881506 -2.230263 -0.77427703 0.11982578784227371 -0.9927799701690674 -0.005457231774926186 232.0 26.0 1.0 1.0
4.7826729 -2.2458465 -0.76184583 0.03275444358587265 -0.9962433576583862 0.08016394823789597 27.0 26.0 1.0 0.0
4.8972363 -2.2395029 -0.63667536 0.13665758073329926 -0.9902915954589844 0.02544112503528595 232.0 27.0 1.0 1.0
4.819612 -2.2652614 -0.62920582 0.8215234279632568 -0.5414609909057617 -0.17865976691246033 133.0 27.0 1.0 2.0
4.9536362 -2.266377 -0.50253618 0.16216708719730377 -0.9856264591217041 0.04735194519162178 247.0 28.0 1.0 1.0
4.8323441 -2.2722635 -0.49215767 0.06117568165063858 -0.9954547882080078 -0.07298872619867325 193.0 28.0 1.0 1.0
4.9416595 -2.261903 -0.36097935 0.11837795376777649 -0.9917842745780945 0.048483677208423615 238.0 29.0 1.0 1.0
4.8743596 -2.2930884 -0.35737637 -0.7548214197158813 -0.6559274196624756 -0.001970455050468445 232.0 29.0 1.0 1.0
4.9557834 -2.2683692 -0.22240607 -0.29992222785949707 -0.8325372934341431 0.4657557010650635 244.0 30.0 1.0 1.0
4.8666563 -2.289443 -0.21903278 -0.04831124097108841 -0.9150229692459106 0.40049847960472107 187.0 30.0 1.0 2.0
4.9557776 -2.2683573 -0.083561793 0.25932416319847107 -0.9654565453529358 -0.025389166548848152 235.0 31.0 1.0 1.0
4.9678793 -2.3371751 -0.083805285 0.3180861175060272 -0.947997510433197 0.01104108989238739 169.0 31.0 1.0 2.0
18.867802 -13.258936 0.25521997 -0.01786273531615734 -0.9995982646942139 0.02200564742088318 20.0 32.0 1.0 6.0
18.786312 -13.49779 0.2575694 -0.013580984435975552 -0.9980146288871765 -0.0615009143948555 20.0 32.0 1.0 6.0
9.4799213 -6.6614213 0.42539188 -0.12257564812898636 -0.9187259078025818 -0.37539035081863403 8.0 33.0 1.0 5.0
4.9276929 -3.5374291 0.22494002 -0.07866092771291733 -0.8691453337669373 -0.48826107382774353 17.0 33.0 1.0 2.0
4.8935804 -3.4345367 0.37411588 0.12589648365974426 -0.9284353256225586 0.3495107591152191 28.0 34.0 1.0 2.0
4.8799582 -3.5018864 0.37625292 -0.003783957799896598 -0.9363453984260559 0.35105976462364197 22.0 34.0 1.0 2.0
6.8400435 -4.8031349 0.73600262 0.04204210638999939 -0.9840480089187622 0.17286448180675507 19.0 35.0 1.0 5.0
6.7245545 -4.8279581 0.72958189 -0.016480470076203346 -0.9945905208587646 0.10255817323923111 17.0 35.0 1.0 5.0
6.4152551 -4.506217 0.89316136 -0.054639678448438644 -0.973821222782135 -0.2206508368253708 23.0 36.0 1.0 5.0
6.4030905 -4.5986481 0.89865321 -0.035983093082904816 -0.968691885471344 -0.24564465880393982 22.0 36.0 1.0 5.0
5.5673971 -3.9113636 0.95384532 -0.04497046023607254 -0.9681684970855713 -0.24622642993927002 27.0 37.0 1.0 5.0
19.296204 -13.87583 3.3235235 -0.0565006248652935 -0.9680517911911011 -0.2443016916513443 22.0 37.0 1.0 6.0
5.3087463 -3.732182 1.0801451 -0.042087260633707047 -0.9694266319274902 -0.2417449951171875 29.0 38.0 1.0 5.0
5.3428965 -3.84057 1.0956399 -0.05247015506029129 -0.968333899974823 -0.24408277869224548 29.0 38.0 1.0 5.0
4.5707798 -3.2137492 1.0791229 -0.16830308735370636 -0.07831809669733047 -0.9826191067695618 97.0 39.0 1.0 1.0
4.5239935 -3.2522268 1.0764766 -0.1361108124256134 -0.017930544912815094 -0.990531325340271 61.0 39.0 1.0 1.0
4.2100382 -2.9618361 1.1336169 -0.18118831515312195 -0.0801100954413414 -0.9801801443099976 121.0 40.0 1.0 1.0
4.1596379 -2.9920235 1.1288196 -0.158036008477211 -0.09209330379962921 -0.9831293821334839 106.0 40.0 1.0 1.0
4.043385 -2.847508 1.2253221 -0.0816999301314354 -0.9889746308326721 -0.12350849062204361 255.0 41.0 1.0 1.0
4.0289478 -2.9010239 1.2304519 -0.07802564650774002 -0.9668035507202148 -0.2433166652917862 255.0 41.0 1.0 1.0
3.5893269 -2.5298595 1.2104609 -0.21606609225273132 -0.5053655505180359 -0.8354167342185974 226.0 42.0 1.0 1.0
3.5781286 -2.5785704 1.2160561 -0.12214542180299759 -0.4652547538280487 -0.8767088651657104 247.0 42.0 1.0 1.0
3.3540626 -2.3671069 1.24951 -0.09279841184616089 -0.03987325355410576 -0.9948862791061401 244.0 43.0 1.0 1.0
3.3196414 -2.3953393 1.2463034 -0.11774180084466934 -0.024095116183161736 -0.9927518963813782 232.0 43.0 1.0 1.0
3.1819003 -2.2485688 1.299708 -0.2705489695072174 -0.02809937298297882 -0.9622960090637207 255.0 44.0 1.0 1.0
3.1549561 -2.2795076 1.2987089 -0.12586651742458344 -0.05158667266368866 -0.9907050132751465 255.0 44.0 1.0 1.0
2.9792359 -2.1080136 1.3270953 0.25579044222831726 -0.036715008318424225 -0.9660348296165466 229.0 45.0 1.0 1.0
2.9720671 -2.1501057 1.3341571 -0.05421655997633934 -0.008236877620220184 -0.9984952807426453 253.0 45.0 1.0 1.0
2.85358 -2.0225062 1.3785523 -0.3808189034461975 -0.08160146325826645 -0.9210419058799744 255.0 46.0 1.0 1.0
2.8049858 -2.0325472 1.3656229 -0.496921569108963 -0.06620299816131592 -0.8652664422988892 255.0 46.0 1.0 1.0
2.6468194 -1.8781943 1.3823161 -0.11541265994310379 -0.0385141558945179 -0.9925707578659058 255.0 47.0 1.0 1.0
2.6149433 -1.8971102 1.3762819 0.14779464900493622 -0.03834744542837143 -0.988274335861206 255.0 47.0 1.0 1.0
2.8207295 -1.2573569 1.4141115 -0.1756029576063156 -0.07167243957519531 -0.9818485975265503 244.0 48.0 1.0 1.0
2.8171656 -1.2913588 1.4193195 -0.1567671149969101 -0.05237115919589996 -0.9862461090087891 253.0 48.0 1.0 1.0
2.6806121 -1.1904913 1.4428428 -0.10842791944742203 -0.02310846373438835 -0.9938356876373291 253.0 49.0 1.0 1.0
2.6580472 -1.2139711 1.4377702 -0.10842791944742203 -0.02310846373438835 -0.9938356876373291 250.0 49.0 1.0 1.0
2.5376549 -1.1222389 1.4631534 -0.18797804415225983 -0.1359369158744812 -0.9727205634117126 255.0 50.0 1.0 1.0
2.5352626 -1.1531333 1.4689398 -0.16459783911705017 -0.0040448373183608055 -0.9863523840904236 255.0 50.0 1.0 1.0
2.3987136 -1.0552396 1.4787208 -0.17116357386112213 -0.03893366828560829 -0.9844731688499451 255.0 51.0 1.0 1.0
2.3905425 -1.0817105 1.4808726 -0.14489731192588806 -0.051366377621889114 -0.9881125092506409 255.0 51.0 1.0 1.0
2.2947142 -1.0046798 1.5103302 -0.12426576018333435 -0.07280894368886948 -0.989574134349823 255.0 52.0 1.0 1.0
2.2589214 -1.0173073 1.4940219 -0.15812724828720093 -0.08219287544488907 -0.9839918613433838 253.0 52.0 1.0 1.0
2.1660256 -0.94278121 1.5202562 -0.18266478180885315 -0.0591333843767643 -0.9813953638076782 255.0 53.0 1.0 1.0
2.1405225 -0.95846516 1.509625 -0.18266478180885315 -0.0591333843767643 -0.9813953638076782 253.0 53.0 1.0 1.0
2.053066 -0.88746631 1.5360671 -0.1612076610326767 -0.10631006956100464 -0.9811780452728271 255.0 54.0 1.0 1.0
2.0495179 -0.91157937 1.5407501 -0.14679749310016632 -0.10655201226472855 -0.9834110140800476 255.0 54.0 1.0 1.0
1.9520544 -0.83792704 1.5564193 -0.10307008028030396 -0.03223522752523422 -0.9941516518592834 255.0 55.0 1.0 1.0
1.9193963 -0.8477903 1.5376941 -0.13794492185115814 -0.03209800645709038 -0.9899196624755859 255.0 55.0 1.0 1.0
1.8424284 -0.78408897 1.5653353 -0.12949004769325256 -0.06532582640647888 -0.9894264936447144 255.0 56.0 1.0 1.0
1.8339478 -0.80330527 1.5654808 -0.12976446747779846 0.00654230872169137 -0.991523265838623 255.0 56.0 1.0 1.0
1.7415943 -0.73400098 1.5773612 -0.5080605745315552 -0.03771321848034859 -0.8604952692985535 255.0 57.0 1.0 1.0
1.7336431 -0.75216383 1.5774988 -0.48501160740852356 -0.06345158070325851 -0.8722026348114014 255.0 57.0 1.0 1.0
1.6847157 -0.70281523 1.6278387 -0.45706984400749207 -0.12027770280838013 -0.8812606930732727 255.0 58.0 1.0 1.0
1.6633761 -0.71444631 1.6146801 -0.497542142868042 -0.08419755101203918 -0.8633438348770142 255.0 58.0 1.0 1.0
1.5793653 -0.65089446 1.6311921 0.2422841191291809 -0.07089526951313019 -0.9676116108894348 255.0 59.0 1.0 1.0
1.574952 -0.66850221 1.6340752 0.1843392699956894 -0.05519774556159973 -0.981311559677124 253.0 59.0 1.0 1.0
1.4663941 -0.59560663 1.6217616 -0.13383646309375763 -0.039474863559007645 -0.9902169108390808 247.0 60.0 1.0 1.0
1.4624808 -0.61198324 1.624736 0.2325381189584732 -0.028069263324141502 -0.9721821546554565 255.0 60.0 1.0 1.0
1.3791987 -0.55056518 1.6370078 -0.4986421465873718 -0.03273792564868927 -0.8661894798278809 255.0 61.0 1.0 1.0
1.3582709 -0.55874556 1.6193622 -0.4972350299358368 -0.08186331391334534 -0.8637452125549316 241.0 61.0 1.0 1.0
1.3023962 -0.5099625 1.6648031 -0.12427321076393127 -0.06572505831718445 -0.990068793296814 255.0 62.0 1.0 1.0
1.2991946 -0.52451092 1.6679648 -0.14451368153095245 -0.05825263261795044 -0.9877866506576538 255.0 62.0 1.0 1.0
1.2161508 -0.4647879 1.6813656 0.35530760884284973 -0.07970371097326279 -0.9313451647758484 255.0 63.0 1.0 1.0
1.2064829 -0.47564402 1.6751419 0.3829272985458374 -0.10904662311077118 -0.9173197746276855 255.0 63.0 1.0 1.0
8.2854137 -3.7742403 -2.297941 -0.019346747547388077 -0.9990349411964417 0.03943214192986488 8.0 22.0 2.0 1.0
9.2333059 -4.3393126 -1.7449298 -0.0671287328004837 -0.9931501150131226 0.09563758224248886 33.0 25.0 2.0 6.0
9.829608 -4.6301346 -0.16953744 0.3180861175060272 -0.947997510433197 0.01104108989238739 10.0 31.0 1.0 5.0
19.069689 -13.406377 0.85185516 -0.12257564812898636 -0.9187259078025818 -0.37539035081863403 20.0 33.0 2.0 6.0
18.986557 -13.647316 0.85604984 -0.07866092771291733 -0.8691453337669373 -0.48826107382774353 11.0 33.0 2.0 6.0
19.283178 -13.551781 1.4633483 0.12589648365974426 -0.9284353256225586 0.3495107591152191 14.0 34.0 2.0 6.0
19.097908 -13.722638 1.4617206 0.11750834435224533 -0.8839839696884155 0.452508807182312 15.0 34.0 2.0 6.0
19.337584 -13.590293 2.074043 0.04204210638999939 -0.9840480089187622 0.17286448180675507 19.0 35.0 2.0 6.0
19.126062 -13.74316 2.0683024 -0.016480470076203346 -0.9945905208587646 0.10255817323923111 20.0 35.0 2.0 6.0
19.376511 -13.62295 2.6903501 -0.054639678448438644 -0.973821222782135 -0.2206508368253708 19.0 36.0 2.0 6.0
19.261585 -13.845941 2.6960068 -0.035983093082904816 -0.968691885471344 -0.24564465880393982 24.0 36.0 2.0 6.0
0.96590161 -0.80883723 -1.6444714 0.17056812345981598 0.040707025676965714 0.9845046401023865 255.0 0.0 1.0 1.0
0.97800094 -0.80176747 -1.6509048 0.17056812345981598 0.040707025676965714 0.9845046401023865 255.0 0.0 1.0 1.0
1.0697578 -0.88297236 -1.6657085 0.04269138723611832 0.029107676818966866 0.998664140701294 255.0 1.0 1.0 1.0
1.0729226 -0.86686867 -1.6565748 0.07973648607730865 0.02904147282242775 0.9963928461074829 255.0 1.0 1.0 1.0
1.1604 -0.94672179 -1.665327 0.0018997800070792437 -0.04106270521879196 0.999154806137085 255.0 2.0 1.0 1.0
1.174349 -0.93785977 -1.6713754 0.0018997800070792437 -0.04106270521879196 0.999154806137085 255.0 2.0 1.0 1.0
1.2751762 -1.029577 -1.6921315 0.1528443992137909 0.06770427525043488 0.9859283566474915 255.0 3.0 1.0 1.0
1.2879943 -1.0178893 -1.6951133 0.15290315449237823 0.06179247051477432 0.9863073825836182 255.0 3.0 1.0 1.0
1.3771918 -1.102329 -1.6969945 0.16204549372196198 0.08083949983119965 0.983466386795044 253.0 4.0 1.0 1.0
1.3908517 -1.0896208 -1.699885 0.15299426019191742 0.019640203565359116 0.9880318641662598 253.0 4.0 1.0 1.0
1.5005734 -1.1920767 -1.7210753 0.12205071747303009 0.0008163950988091528 0.9925234913825989 255.0 5.0 1.0 1.0
1.498839 -1.1652982 -1.7051555 0.12205071747303009 0.0008163950988091528 0.9925234913825989 253.0 5.0 1.0 1.0
1.6111622 -1.2711827 -1.7233716 0.12819480895996094 0.03094816766679287 0.9912660121917725 250.0 6.0 1.0 1.0
1.6267314 -1.2561089 -1.7260809 0.12819480895996094 0.03094816766679287 0.9912660121917725 253.0 6.0 1.0 1.0
1.7540138 -1.3760382 -1.7528553 0.1411668211221695 0.015397577546536922 0.9898661375045776 255.0 7.0 1.0 1.0
1.7533191 -1.3460699 -1.7381569 0.13157565891742706 0.03670969977974892 0.9906262159347534 238.0 7.0 1.0 1.0
1.8960626 -1.4800828 -1.7726921 0.11606786400079727 0.057117823511362076 0.9915976524353027 255.0 8.0 1.0 1.0
1.896059 -1.448383 -1.7586002 0.123713418841362 0.0570647194981575 0.9906757473945618 255.0 8.0 1.0 1.0
2.0323772 -1.5785729 -1.7782912 0.15736475586891174 0.03865450248122215 0.9867837429046631 250.0 9.0 1.0 1.0
2.0565636 -1.5631803 -1.7852896 0.13436256349086761 0.03878726065158844 0.990172803401947 250.0 9.0 1.0 1.0
2.1984015 -1.7015294 -1.8005556 0.09227751940488815 0.0031870997045189142 0.9957282543182373 238.0 10.0 1.0 1.0
2.2133484 -1.676374 -1.7985629 0.10071118175983429 0.003184482455253601 0.9949106574058533 235.0 10.0 1.0 1.0
2.3725228 -1.8291856 -1.8178477 0.08629228174686432 0.09345988184213638 0.991876482963562 223.0 11.0 1.0 1.0
2.3914673 -1.8042309 -1.8180462 0.1538807600736618 0.03337428718805313 0.9875256419181824 229.0 11.0 1.0 1.0
2.6013973 -1.9986975 -1.8622254 0.14658090472221375 0.08708139508962631 0.9853581786155701 238.0 12.0 1.0 1.0
2.6165485 -1.9671483 -1.8584893 0.09239142388105392 0.08765571564435959 0.9918569922447205 238.0 12.0 1.0 1.0
2.7992532 -2.1447034 -1.8716617 0.10904086381196976 0.036925677210092545 0.99335116147995 205.0 13.0 1.0 1.0
2.8214746 -2.1152616 -1.8718957 0.07085104286670685 0.037054743617773056 0.9967983961105347 208.0 13.0 1.0 1.0
3.0615673 -2.3400779 -1.9089979 0.13405048847198486 0.01916947402060032 0.990788996219635 187.0 14.0 1.0 1.0
3.0800841 -2.3035786 -1.9056979 0.1432795524597168 0.06154261901974678 0.9877669811248779 184.0 14.0 1.0 1.0
3.3707306 -2.5702603 -1.9561594 0.14114250242710114 0.05631443113088608 0.9883862733840942 157.0 15.0 1.0 1.0
3.3973701 -2.5348108 -1.9564409 0.15526118874549866 0.05619407445192337 0.9862738847732544 175.0 15.0 1.0 1.0
4.0559855 -1.9771458 -1.9446898 0.0975327417254448 0.07040863484144211 0.992738664150238 136.0 16.0 1.0 1.0
4.096272 -1.9440231 -1.9545273 0.12982113659381866 0.03242870420217514 0.9910069704055786 166.0 16.0 1.0 1.0
4.5273604 -2.2122364 -2.0112946 0.20240527391433716 0.024350682273507118 0.9789989590644836 127.0 17.0 1.0 1.0
4.5267177 -2.1535013 -2.0012598 0.14151400327682495 0.017026280984282494 0.9897897839546204 118.0 17.0 1.0 1.0
4.8217096 -2.3624704 -1.9764997 0.012358324602246284 -0.9920482039451599 0.12525072693824768 154.0 18.0 1.0 1.0
4.8223934 -2.300503 -1.9671961 -0.004230807069689035 -0.9723438024520874 0.23351597785949707 148.0 18.0 1.0 1.0
5.8343573 -2.8659251 -2.1975873 -0.22229118645191193 -0.9389670491218567 0.2625404894351959 30.0 19.0 1.0 5.0
5.8468575 -2.7964699 -2.1916378 0.18770188093185425 -0.9676474928855896 0.1686009168624878 29.0 19.0 1.0 5.0
6.7703996 -3.3322971 -2.3306835 -0.11241651326417923 -0.9697889685630798 0.21649903059005737 29.0 20.0 1.0 5.0
6.7875805 -3.2529325 -2.3253129 -0.15152037143707275 -0.951451301574707 0.26792168617248535 28.0 20.0 1.0 5.0
7.9360518 -3.9136841 -2.4809942 -0.13990117609500885 -0.9896593689918518 -0.03165314719080925 30.0 21.0 1.0 6.0
7.9035883 -3.7952988 -2.4589162 -0.05168209597468376 -0.9893657565116882 -0.13595710694789886 30.0 21.0 1.0 6.0
8.2778111 -4.0894704 -2.3283291 -0.025637121871113777 -0.9860653281211853 -0.1643715351819992 25.0 22.0 1.0 6.0
8.2781372 -3.9823492 -2.3172338 -0.31296730041503906 -0.9488827586174011 0.04090265557169914 25.0 22.0 1.0 6.0
8.9146729 -4.4102035 -2.2352877 -0.12075542658567429 -0.9900769591331482 0.0718734934926033 25.0 23.0 1.0 6.0
8.8723869 -4.2742081 -2.2140331 -0.36054864525794983 -0.9265727400779724 0.10708694905042648 25.0 23.0 1.0 6.0
8.9198961 -4.4165554 -1.9679224 -0.13737450540065765 -0.9862125515937805 0.09226550906896591 28.0 24.0 1.0 6.0
8.8948956 -4.2887754 -1.9530864 -0.44222578406333923 -0.870320737361908 0.21674467623233795 26.0 24.0 1.0 6.0
9.0098639 -4.466938 -1.7185202 -0.09459131956100464 -0.9860972166061401 0.13661880791187286 26.0 25.0 1.0 6.0
9.116415 -4.4015102 -1.730722 -0.4803141951560974 -0.8694644570350647 0.1154547929763794 35.0 25.0 1.0 6.0
4.9508433 -2.4529936 -0.79607874 0.004425775725394487 -0.9618151783943176 0.2736639082431793 22.0 26.0 1.0 2.0
4.9370518 -2.3820591 -0.79016894 -0.294169157743454 -0.8903083205223083 0.3475854694843292 23.0 26.0 1.0 2.0
4.9133439 -2.4364884 -0.6473425 -0.10932394117116928 -0.9747819304466248 0.1945473551750183 21.0 27.0 1.0 2.0
4.8742394 -2.3537574 -0.6392439 0.2650356590747833 -0.926680326461792 -0.2664954364299774 26.0 27.0 1.0 2.0
9.783596 -4.8593969 -1.0091183 -0.26394322514533997 -0.9589097499847412 0.10404813289642334 24.0 28.0 1.0 5.0
4.8404937 -2.3384447 -0.49514249 0.23357415199279785 -0.9118006229400635 0.3377317190170288 19.0 28.0 1.0 0.0
9.6772747 -4.6828794 -0.71618634 -0.4810119867324829 -0.8748384118080139 -0.05731717124581337 30.0 29.0 1.0 5.0
9.7268848 -4.8332949 -0.44462264 -0.3498762845993042 -0.918240487575531 0.18552854657173157 28.0 30.0 1.0 5.0
9.6115379 -4.6510224 -0.4377988 -0.02757381647825241 -0.9991607069969177 0.030289486050605774 21.0 30.0 1.0 5.0
10.955015 -5.4442906 -0.18963228 -0.21288937330245972 -0.9718348979949951 -0.10106908529996872 23.0 31.0 1.0 5.0
10.971871 -5.3101034 -0.18980917 0.06763514876365662 -0.9975055456161499 0.020203139632940292 21.0 31.0 1.0 5.0
18.563112 -13.936584 0.26127625 0.04414292424917221 -0.9959880709648132 0.07784008234739304 16.0 32.0 1.0 6.0
18.672655 -13.715398 0.25924438 0.014417204074561596 -0.9945735931396484 0.10303076356649399 18.0 32.0 1.0 6.0
4.8651094 -3.6495302 0.22625175 0.010463602840900421 -0.9407822489738464 -0.3388497531414032 25.0 33.0 1.0 1.0
4.8934674 -3.5912974 0.22540864 -0.026989171281456947 -0.8559393882751465 -0.5163713097572327 23.0 33.0 1.0 2.0
4.9039984 -3.5978096 0.38127929 -0.005178661551326513 -0.7941813468933105 0.6076588034629822 21.0 34.0 1.0 2.0
6.6926985 -4.9123998 0.73212546 0.14212238788604736 -0.9886516332626343 0.04867468774318695 13.0 35.0 1.0 5.0
6.399209 -4.6985354 0.90539545 -0.02943950891494751 -0.9741034507751465 -0.22417820990085602 19.0 36.0 1.0 5.0
5.3146815 -3.9891522 0.93297118 -0.034285932779312134 -0.970216691493988 -0.23980005085468292 25.0 37.0 1.0 5.0
5.3307528 -3.9145288 0.92810029 -0.037199921905994415 -0.9703739881515503 -0.23872673511505127 22.0 37.0 1.0 5.0
5.3555493 -4.0228724 1.1160823 -0.04699978977441788 -0.9664739966392517 -0.25242605805397034 28.0 38.0 1.0 5.0
5.3498454 -3.9315126 1.1058136 -0.04759320616722107 -0.968906044960022 -0.2428082823753357 30.0 38.0 1.0 5.0
4.4294524 -3.3274353 1.0710906 -0.24466675519943237 -0.06045999377965927 -0.9677203893661499 22.0 39.0 1.0 1.0
4.4641843 -3.2808967 1.0707216 -0.15529033541679382 -0.06270592659711838 -0.985876739025116 16.0 39.0 1.0 1.0
4.0988488 -3.0808997 1.1302884 -0.1325778216123581 0.016002293676137924 -0.9910434484481812 115.0 40.0 1.0 1.0
4.1027145 -3.0169775 1.1222272 -0.1038985550403595 -0.08268403261899948 -0.9911449551582336 85.0 40.0 1.0 1.0
3.9700584 -2.9871686 1.2320024 -0.1809016615152359 -0.7922274470329285 -0.5827952027320862 241.0 41.0 1.0 1.0
4.0262651 -2.9639013 1.2393463 -0.13122186064720154 -0.9254037141799927 -0.35554009675979614 255.0 41.0 1.0 1.0
3.507606 -2.6413815 1.211278 -0.13191963732242584 -0.210952490568161 -0.9685537219047546 247.0 42.0 1.0 1.0
3.5259075 -2.5976603 1.207806 -0.11365184932947159 -0.2114335149526596 -0.9707622528076172 229.0 42.0 1.0 1.0
3.2867241 -2.4782393 1.2537576 -0.11170298606157303 -0.050441741943359375 -0.9924606084823608 255.0 43.0 1.0 1.0
3.3003304 -2.4346108 1.2488377 -0.10066168755292892 -0.00815962627530098 -0.9948873519897461 247.0 43.0 1.0 1.0
3.0547271 -2.3061922 1.2777033 -0.15693727135658264 -0.03804611414670944 -0.9868755340576172 241.0 44.0 1.0 1.0
3.1032574 -2.2921786 1.2875477 -0.15684372186660767 -0.05135663226246834 -0.9862871766090393 255.0 44.0 1.0 1.0
2.9350207 -2.2187431 1.3386793 -0.528782308101654 -0.0547308512032032 -0.8469910621643066 255.0 45.0 1.0 1.0
2.9431431 -2.1767159 1.331618 -0.5110180974006653 -0.011982601135969162 -0.8594864010810852 247.0 45.0 1.0 1.0
2.7347617 -2.0706313 1.3528594 -0.09290298074483871 -0.0642416924238205 -0.993600606918335 250.0 46.0 1.0 1.0
2.7594357 -2.0441301 1.3540945 -0.41925838589668274 0.02062905579805374 -0.9076325297355652 244.0 46.0 1.0 1.0
2.5479057 -1.9314467 1.3625858 -0.34543749690055847 -0.011516191996634007 -0.9383710622787476 235.0 47.0 1.0 1.0
2.5710988 -1.9068875 1.3639369 0.1015181615948677 0.008651020005345345 -0.994796097278595 250.0 47.0 1.0 1.0
2.7858756 -1.348533 1.418072 -0.07684387266635895 -0.03616810962557793 -0.9963868856430054 255.0 48.0 1.0 1.0
2.7967124 -1.3177612 1.4161884 -0.11630506813526154 -0.03602918982505798 -0.9925597906112671 250.0 48.0 1.0 1.0
2.6284513 -1.2678525 1.4363981 -0.16238458454608917 -0.05929403752088547 -0.9849444031715393 247.0 49.0 1.0 1.0
2.6612301 -1.2494808 1.4467604 -0.11644130200147629 -0.059682831168174744 -0.9914027452468872 255.0 49.0 1.0 1.0
2.4974432 -1.1998653 1.4618621 -0.0841902494430542 -0.03723719343543053 -0.9957536458969116 255.0 50.0 1.0 1.0
2.5036232 -1.1706672 1.4579391 -0.1601785123348236 0.0004942147061228752 -0.9870879650115967 255.0 50.0 1.0 1.0
2.3575768 -1.1270519 1.4753352 -0.1486852467060089 -0.0593239963054657 -0.9871035814285278 255.0 51.0 1.0 1.0
2.3725686 -1.1038109 1.4771096 -0.1134708821773529 -0.09215116500854492 -0.9892585873603821 253.0 51.0 1.0 1.0
2.2398498 -1.0659126 1.4964126 -0.1449909508228302 -0.07439202815294266 -0.9866324067115784 255.0 52.0 1.0 1.0
2.2634821 -1.0482184 1.5044804 -0.15822626650333405 -0.07423939555883408 -0.984607994556427 255.0 52.0 1.0 1.0
2.1196156 -1.0031227 1.5099359 -0.1389961838722229 -0.06614965945482254 -0.9880810976028442 255.0 53.0 1.0 1.0
2.1301677 -0.98090398 1.5097673 -0.1556672304868698 -0.08309881389141083 -0.9843079447746277 255.0 53.0 1.0 1.0
2.023643 -0.9515183 1.5365256 -0.1590389758348465 -0.05799855291843414 -0.9855671525001526 255.0 54.0 1.0 1.0
2.0216713 -0.92478818 1.5273226 -0.1473885327577591 -0.058104678988456726 -0.987370491027832 255.0 54.0 1.0 1.0
1.9125433 -0.89333338 1.5474129 -0.09324900060892105 -0.019259780645370483 -0.9954565167427063 255.0 55.0 1.0 1.0
1.9190228 -0.87194628 1.5449007 -0.13794492185115814 -0.03209800645709038 -0.9899196624755859 255.0 55.0 1.0 1.0
1.7934834 -0.83090526 1.5460658 -0.11341030150651932 -0.006182463373988867 -0.9935289621353149 250.0 56.0 1.0 1.0
1.8051254 -0.81341439 1.5483831 -0.12312819808721542 0.0036732617300003767 -0.9923839569091797 253.0 56.0 1.0 1.0
1.7255088 -0.79221076 1.5854256 -0.12443207204341888 -0.051896583288908005 -0.9908700585365295 255.0 57.0 1.0 1.0
1.7282723 -0.77160895 1.5801704 -0.48501160740852356 -0.06345158070325851 -0.8722026348114014 255.0 57.0 1.0 1.0
1.6177851 -0.73546636 1.585672 -0.4710655212402344 -0.022380100563168526 -0.8818143010139465 255.0 58.0 1.0 1.0
1.6419477 -0.725815 1.6014948 -0.4990403354167938 -0.03317392244935036 -0.8659435510635376 255.0 58.0 1.0 1.0
1.5575888 -0.70017582 1.6315407 -0.43573829531669617 -0.0396774560213089 -0.8991984724998474 255.0 59.0 1.0 1.0
1.5623578 -0.68269229 1.6286585 0.1843392699956894 -0.05519774556159973 -0.981311559677124 250.0 59.0 1.0 1.0
1.4540731 -0.6447919 1.6306617 0.24571438133716583 -0.041261300444602966 -0.968463659286499 250.0 60.0 1.0 1.0
1.4763106 -0.6362561 1.6477014 0.24571438133716583 -0.041261300444602966 -0.968463659286499 255.0 60.0 1.0 1.0
1.3532841 -0.5903517 1.6284318 -0.16403359174728394 -0.047078099101781845 -0.9853307008743286 253.0 61.0 1.0 1.0
1.3471936 -0.57088691 1.613529 -0.16403359174728394 -0.047078099101781845 -0.9853307008743286 241.0 61.0 1.0 1.0
1.2615317 -0.54037446 1.6344914 -0.49995899200439453 -0.03735915198922157 -0.8652428984642029 247.0 62.0 1.0 1.0
1.2862977 -0.53515726 1.6588672 -0.49995899200439453 -0.03735915198922157 -0.8652428984642029 255.0 62.0 1.0 1.0
1.2116823 -0.50752884 1.6974295 -0.025685036554932594 -0.1180051788687706 -0.9926807284355164 255.0 63.0 1.0 1.0
1.2057662 -0.4901827 1.6815355 -0.025685036554932594 -0.1180051788687706 -0.9926807284355164 255.0 63.0 1.0 1.0
9.7837029 -4.7324529 -1.004763 0.23357415199279785 -0.9118006229400635 0.3377317190170288 15.0 28.0 1.0 5.0
10.929133 -5.4315171 -0.5000897 -0.3498762845993042 -0.918240487575531 0.18552854657173157 11.0 30.0 2.0 5.0
10.909898 -5.2801847 -0.49749058 -0.02757381647825241 -0.9991607069969177 0.030289486050605774 13.0 30.0 2.0 5.0
20.061028 -9.9746695 -0.35044387 -0.21288937330245972 -0.9718348979949951 -0.10106908529996872 15.0 31.0 2.0 6.0
20.153608 -9.7588282 -0.35185242 0.06763514876365662 -0.9975055456161499 0.020203139632940292 18.0 31.0 2.0 6.0
0.96481496 -0.82525396 -1.657127 0.17040157318115234 0.06004827469587326 0.983543336391449 255.0 0.0 1.0 1.0
0.94888413 -0.82889307 -1.6443446 0.17040157318115234 0.06004827469587326 0.983543336391449 255.0 0.0 1.0 1.0
1.0527164 -0.88749868 -1.6533573 0.04269138723611832 0.029107676818966866 0.998664140701294 255.0 1.0 1.0 1.0
1.0434325 -0.89848304 -1.6532693 0.13708515465259552 -0.06602689623832703 0.9883562326431274 255.0 1.0 1.0 1.0
1.1545856 -0.96225601 -1.6712168 0.14834852516651154 -0.08779272437095642 0.9850305914878845 255.0 2.0 1.0 1.0
1.1546686 -0.98300123 -1.6859946 0.1489134579896927 0.0116457249969244 0.9887816905975342 255.0 2.0 1.0 1.0
1.2643918 -1.0428731 -1.6920636 0.1528443992137909 0.06770427525043488 0.9859283566474915 255.0 3.0 1.0 1.0
1.2555944 -1.0578645 -1.6948321 0.1338176727294922 0.06789305806159973 0.9886776208877563 255.0 3.0 1.0 1.0
1.3634133 -1.1148609 -1.6941453 0.15934090316295624 0.07949025183916092 0.9840182065963745 255.0 4.0 1.0 1.0
1.3517344 -1.1290869 -1.6940317 0.13230793178081512 0.038131970912218094 0.9904748797416687 250.0 4.0 1.0 1.0
1.474243 -1.1964451 -1.7049482 0.12205071747303009 0.0008163950988091528 0.9925234913825989 250.0 5.0 1.0 1.0
1.473133 -1.2213492 -1.7181944 0.11302073299884796 0.0008172742091119289 0.9935922622680664 253.0 5.0 1.0 1.0
1.6049663 -1.2937702 -1.731002 0.07831520587205887 0.031109802424907684 0.9964431524276733 250.0 6.0 1.0 1.0
1.5937629 -1.3124678 -1.7334421 0.07831520587205887 0.031109802424907684 0.9964431524276733 255.0 6.0 1.0 1.0
1.7444713 -1.3982785 -1.7577025 0.09270145744085312 -0.0019406771752983332 0.9956920146942139 255.0 7.0 1.0 1.0
1.7200968 -1.4084933 -1.7476628 0.09270145744085312 -0.0019406771752983332 0.9956920146942139 255.0 7.0 1.0 1.0
1.8704761 -1.4918165 -1.7630827 0.12510089576244354 0.06625001132488251 0.9899296760559082 250.0 8.0 1.0 1.0
1.8623016 -1.5174464 -1.770051 0.10408855974674225 0.05657489225268364 0.9929576516151428 255.0 8.0 1.0 1.0
2.0312381 -1.612077 -1.7918258 0.15742187201976776 0.027732621878385544 0.9871419668197632 255.0 9.0 1.0 1.0
1.9964623 -1.6187341 -1.7757286 0.14522123336791992 0.03294336795806885 0.9888505935668945 244.0 9.0 1.0 1.0
2.1831565 -1.7265553 -1.8026009 0.09227751940488815 0.0031870997045189142 0.9957282543182373 238.0 10.0 1.0 1.0
2.1780708 -1.7599016 -1.8133001 0.14430561661720276 0.03029015101492405 0.9890694618225098 250.0 10.0 1.0 1.0
2.3774402 -1.8730224 -1.8363967 0.0866704210639 -0.005304662510752678 0.996222972869873 238.0 11.0 1.0 1.0
2.3311789 -1.8763491 -1.8154331 0.16363006830215454 0.001272294670343399 0.9865208864212036 220.0 11.0 1.0 1.0
2.5558004 -2.0064833 -1.8442789 0.1471269130706787 -0.01327220257371664 0.9890285730361938 223.0 12.0 1.0 1.0
2.5699561 -2.0614874 -1.8697581 0.10259275138378143 -0.034645941108465195 0.9941198825836182 253.0 12.0 1.0 1.0
2.7794836 -2.1760993 -1.8733668 0.11301503330469131 0.08631159365177155 0.9898373484611511 202.0 13.0 1.0 1.0
2.7621379 -2.2095184 -1.8768903 0.09477580338716507 0.06798243522644043 0.9931746125221252 205.0 13.0 1.0 1.0
3.0454228 -2.37866 -1.9141405 0.10672788321971893 0.0445217564702034 0.9932910203933716 187.0 14.0 1.0 1.0
3.0148375 -2.4059553 -1.9103339 0.10672788321971893 0.0445217564702034 0.9932910203933716 181.0 14.0 1.0 1.0
3.3465562 -2.6076796 -1.9576265 0.08105112612247467 0.03814799338579178 0.9959796071052551 151.0 15.0 1.0 1.0
3.3163171 -2.6403286 -1.9556718 0.17364008724689484 0.03769250586628914 0.9840875864028931 151.0 15.0 1.0 1.0
4.0416951 -2.0228441 -1.9475797 0.12048006057739258 0.037446025758981705 0.9920092225074768 118.0 16.0 1.0 1.0
4.05303 -2.0818856 -1.9631079 0.09358198195695877 0.02595379762351513 0.9952732920646667 145.0 16.0 1.0 1.0
4.5007019 -2.2579005 -2.0094953 0.05027490481734276 0.058648109436035156 0.9970119595527649 109.0 17.0 1.0 1.0
4.4835062 -2.3083277 -2.0121071 0.14313122630119324 -0.04557523503899574 0.9886537790298462 100.0 17.0 1.0 1.0
4.823585 -2.4263997 -1.987232 -0.028070008382201195 -0.9964852929115295 0.07892435044050217 148.0 18.0 1.0 1.0
4.8180041 -2.4871395 -1.995149 0.027280349284410477 -0.9910954833030701 0.1303289532661438 148.0 18.0 1.0 1.0
5.8785 -2.9645162 -2.2253938 -0.17920592427253723 -0.939741313457489 0.2911555767059326 30.0 19.0 1.0 5.0
5.8203349 -3.0119746 -2.2146688 -0.4663035571575165 -0.6543357372283936 0.5953198671340942 29.0 19.0 1.0 5.0
6.7454443 -3.4082632 -2.3337502 -0.11748169362545013 -0.9905587434768677 -0.07064960896968842 29.0 20.0 1.0 5.0
6.7773309 -3.5139565 -2.3568442 -0.16374799609184265 -0.9798249006271362 0.11458505690097809 28.0 20.0 1.0 5.0
7.9187632 -4.0088539 -2.4879978 -0.1111331656575203 -0.9782050251960754 -0.1753976196050644 30.0 21.0 1.0 6.0
7.8833117 -4.0951309 -2.4895306 -0.003612135536968708 -0.9967355132102966 -0.08065517991781235 33.0 21.0 1.0 6.0
8.2830153 -4.2006106 -2.341449 -0.12520648539066315 -0.9875949025154114 -0.09476135671138763 19.0 22.0 1.0 6.0
8.2662067 -4.3014727 -2.348623 -0.16466057300567627 -0.9753366112709045 -0.146987646818161 25.0 22.0 1.0 6.0
8.8958874 -4.5175743 -2.2416778 -0.12520989775657654 -0.9911869168281555 -0.04325482249259949 29.0 23.0 1.0 6.0
8.9001026 -4.6375723 -2.2541394 -0.10010029375553131 -0.9891639351844788 0.10739906877279282 26.0 23.0 1.0 6.0
8.960619 -4.554327 -1.9867096 0.0834515169262886 -0.982818603515625 0.16463136672973633 30.0 24.0 1.0 6.0
8.9333982 -4.6588178 -1.990658 -0.053295034915208817 -0.9984790682792664 -0.014105847105383873 27.0 24.0 1.0 6.0
9.0152998 -4.5880141 -1.7280015 0.03017631359398365 -0.9993566274642944 -0.019382860511541367 28.0 25.0 1.0 6.0
9.0576792 -4.72967 -1.744825 0.01816524565219879 -0.997910737991333 0.06200037896633148 31.0 25.0 1.0 6.0
4.9848113 -2.5353436 -0.80546916 -0.010654346086084843 -0.9641321301460266 0.2652089297771454 26.0 26.0 1.0 2.0
4.940454 -2.5782278 -0.80221152 0.03284362703561783 -0.9559752345085144 0.29160356521606445 24.0 26.0 1.0 2.0
4.9087458 -2.4987156 -0.64982754 -0.005662462208420038 -0.9854798316955566 0.16969764232635498 19.0 27.0 1.0 2.0
4.8717475 -2.5444503 -0.64802516 0.019158771261572838 -0.9926823973655701 -0.1192244216799736 19.0 27.0 1.0 2.0
9.7995214 -4.9961343 -1.015431 -0.05370231717824936 -0.9920441508293152 0.11386159807443619 15.0 28.0 1.0 5.0
9.7325907 -4.9641252 -0.44656411 0.02315683662891388 -0.9982191324234009 -0.05497662350535393 25.0 30.0 1.0 5.0
9.7897987 -5.12326 -0.45088807 0.03551860898733139 -0.9978278875350952 0.05547845736145973 20.0 30.0 1.0 5.0
10.940017 -5.580718 -0.18960428 -0.11767297983169556 -0.992670476436615 -0.02753668837249279 23.0 31.0 1.0 5.0
10.958879 -5.7357955 -0.19011432 -0.05485799163579941 -0.995609700679779 0.07584162801504135 21.0 31.0 1.0 5.0
4.9025784 -3.7588022 0.23007864 -0.007791321258991957 -0.9857960939407349 -0.167765811085701 28.0 33.0 1.0 1.0
4.9163394 -3.8518679 0.2329772 -0.027208706364035606 -0.994962215423584 -0.09648815542459488 55.0 33.0 1.0 1.0
7.5032616 -5.7540369 0.59174472 0.09693808853626251 -0.6605637073516846 0.7444853782653809 22.0 34.0 1.0 5.0
7.4299364 -5.8224144 0.59137064 0.14648284018039703 -0.698505163192749 0.7004522681236267 23.0 34.0 1.0 5.0
6.7144742 -5.1486492 0.7471118 0.11131525784730911 -0.9862475395202637 0.12216679006814957 17.0 35.0 1.0 5.0
6.6287341 -5.1940598 0.74416375 -0.09163229167461395 -0.9914205074310303 0.09321366250514984 22.0 35.0 1.0 5.0
5.3415256 -4.0978007 0.94550216 -0.044617392122745514 -0.968167245388031 -0.2462955266237259 28.0 37.0 1.0 5.0
5.3449383 -4.1901784 0.95425713 -0.057814255356788635 -0.965520977973938 -0.2538243532180786 24.0 37.0 1.0 5.0
4.881218 -3.7469416 1.025995 -0.05180726200342178 -0.9659828543663025 -0.2533637285232544 47.0 38.0 1.0 2.0
4.8229694 -3.7831974 1.0224646 -0.07259289920330048 -0.4082674980163574 -0.9099713563919067 46.0 38.0 1.0 1.0
4.3474631 -3.3378217 1.0600235 -0.15931735932826996 -0.12201640754938126 -0.9796580672264099 118.0 39.0 1.0 1.0
4.299789 -3.3734291 1.0573548 -0.2374311238527298 -0.13471078872680664 -0.9620183706283569 133.0 39.0 1.0 1.0
4.0352001 -3.0999229 1.1219666 -0.15363053977489471 -0.030494162812829018 -0.9876576662063599 109.0 40.0 1.0 1.0
4.0115952 -3.1492264 1.1248754 -0.15270192921161652 -0.5658537149429321 -0.8102417588233948 157.0 40.0 1.0 1.0
3.9229708 -3.0168273 1.2274551 -0.07237622141838074 -0.466417133808136 -0.881598949432373 229.0 41.0 1.0 1.0
3.8757677 -3.0457017 1.2229788 -0.14995776116847992 -0.07414168119430542 -0.985908567905426 220.0 41.0 1.0 1.0
3.4612284 -2.6639261 1.2051361 -0.1648103892803192 -0.10232090204954147 -0.9810035824775696 241.0 42.0 1.0 1.0
3.4239154 -2.6928327 1.2022399 -0.17507782578468323 -0.14084681868553162 -0.9744279980659485 226.0 42.0 1.0 1.0
3.2634182 -2.5149512 1.2551249 -0.15345686674118042 -0.05015818402171135 -0.9868814945220947 255.0 43.0 1.0 1.0
3.2307508 -2.5442135 1.2530701 -0.13711051642894745 0.010774487629532814 -0.9904971122741699 255.0 43.0 1.0 1.0
3.0512211 -2.3543975 1.2867327 -0.15358030796051025 -0.031883757561445236 -0.9876216053962708 255.0 44.0 1.0 1.0
3.0262523 -2.3861897 1.2869848 -0.09762163460254669 -0.016346389427781105 -0.9950894117355347 255.0 44.0 1.0 1.0
2.878721 -2.2241099 1.3238589 -0.2823307514190674 -0.07486522197723389 -0.9563913345336914 255.0 45.0 1.0 1.0
2.8374338 -2.240099 1.3159125 -0.30408966541290283 -0.08078137040138245 -0.9492122530937195 255.0 45.0 1.0 1.0
2.7215469 -2.1060853 1.3574176 0.2230873554944992 -0.062263987958431244 -0.9728078842163086 255.0 46.0 1.0 1.0
2.6846077 -2.1228728 1.3503239 -0.10898499935865402 -0.03985480219125748 -0.9932441115379333 247.0 46.0 1.0 1.0
2.573848 -1.9942493 1.3877634 -0.3174504339694977 -0.04061870276927948 -0.9474045038223267 255.0 47.0 1.0 1.0
2.5699682 -2.0347974 1.397361 -0.4909781813621521 -0.02719074860215187 -0.8707475066184998 255.0 47.0 1.0 1.0
2.7779129 -1.3809679 1.4215835 -0.07684387266635895 -0.03616810962557793 -0.9963868856430054 255.0 48.0 1.0 1.0
2.7501915 -1.4033134 1.4151536 -0.10379795730113983 -0.046273373067379 -0.9935213923454285 255.0 48.0 1.0 1.0
2.6212614 -1.2985904 1.4400986 -0.15163271129131317 -0.04719604551792145 -0.9873095154762268 255.0 49.0 1.0 1.0
2.6041634 -1.3243024 1.4385434 -0.11804790794849396 -0.06956391036510468 -0.9905683398246765 255.0 49.0 1.0 1.0
2.4686837 -1.2181718 1.4527158 -0.10852830111980438 -0.03714913874864578 -0.9933989644050598 255.0 50.0 1.0 1.0
2.4587879 -1.2455299 1.4547738 -0.10852830111980438 -0.03714913874864578 -0.9933989644050598 253.0 50.0 1.0 1.0
2.3423197 -1.1502159 1.4735287 -0.14222542941570282 -0.059380970895290375 -0.9880515336990356 253.0 51.0 1.0 1.0
2.3299863 -1.1746478 1.473714 -0.14223536849021912 -0.05819576233625412 -0.9881205558776855 255.0 51.0 1.0 1.0
2.2345171 -1.0924109 1.5006839 -0.1449909508228302 -0.07439202815294266 -0.9866324067115784 255.0 52.0 1.0 1.0
2.2105522 -1.109542 1.4926118 -0.12656919658184052 -0.08967332541942596 -0.9878962635993958 255.0 52.0 1.0 1.0
2.0997224 -1.0209056 1.5035909 -0.1299922913312912 -0.06623129546642303 -0.9893004894256592 255.0 53.0 1.0 1.0
2.1037941 -1.0503542 1.5145642 -0.13008524477481842 -0.05442412197589874 -0.9900079965591431 255.0 53.0 1.0 1.0
2.0044625 -0.9684065 1.5298744 -0.1533617526292801 -0.024112416431307793 -0.9878759384155273 255.0 54.0 1.0 1.0
2.0029044 -0.99372965 1.5368164 -0.12085174769163132 -0.05072876438498497 -0.9913734793663025 255.0 54.0 1.0 1.0
1.8999738 -0.91198218 1.5451759 -0.14718852937221527 -0.07387656718492508 -0.9863457083702087 255.0 55.0 1.0 1.0
1.8901538 -0.93179476 1.5453259 -0.14718852937221527 -0.07387656718492508 -0.9863457083702087 255.0 55.0 1.0 1.0
1.7901715 -0.85243946 1.5511011 -0.08892042189836502 -0.006197960581630468 -0.9960194230079651 253.0 56.0 1.0 1.0
1.7838101 -0.87249839 1.5537027 -0.08890417963266373 -0.020092207938432693 -0.9958375096321106 253.0 56.0 1.0 1.0
1.7085857 -0.80635029 1.577857 -0.10918682813644409 -0.06279605627059937 -0.9920356869697571 255.0 57.0 1.0 1.0
1.688832 -0.81877011 1.5677524 -0.106968455016613 -0.06281128525733948 -0.9922764301300049 255.0 57.0 1.0 1.0
1.6179025 -0.75625724 1.5937511 -0.4710655212402344 -0.022380100563168526 -0.8818143010139465 255.0 58.0 1.0 1.0
1.601656 -0.7692194 1.5859011 -0.4702276885509491 -0.06366320699453354 -0.8802459239959717 255.0 58.0 1.0 1.0
1.5447152 -0.71407235 1.6261204 -0.5169212818145752 -0.04339566454291344 -0.8549323081970215 255.0 59.0 1.0 1.0
1.5291457 -0.72642314 1.6179637 -0.4989827573299408 -0.04439694806933403 -0.8654738664627075 255.0 59.0 1.0 1.0
1.4673643 -0.66940421 1.6536283 0.15295356512069702 -0.06655658781528473 -0.9859895706176758 255.0 60.0 1.0 1.0
1.4499868 -0.67991614 1.642305 0.15295356512069702 -0.06655658781528473 -0.9859895706176758 255.0 60.0 1.0 1.0
1.3468242 -0.60455751 1.6285151 -0.16403359174728394 -0.047078099101781845 -0.9853307008743286 255.0 61.0 1.0 1.0
1.3329307 -0.61518526 1.6197416 0.21768741309642792 -0.04927540197968483 -0.9747738838195801 241.0 61.0 1.0 1.0
1.2556002 -0.55362105 1.6345682 -0.49995899200439453 -0.03735915198922157 -0.8652428984642029 244.0 62.0 1.0 1.0
1.251904 -0.56777722 1.6377267 -0.16348953545093536 -0.042557042092084885 -0.985626757144928 250.0 62.0 1.0 1.0
1.2083409 -0.52123582 1.7006629 -0.12020684033632278 -0.2104349136352539 -0.9701893925666809 255.0 63.0 1.0 1.0
1.1780289 -0.5227856 1.6659948 -0.41545894742012024 -0.20894411206245422 -0.885288655757904 255.0 63.0 1.0 1.0
9.6747255 -4.9304123 -1.2845566 -0.00566604919731617 -0.9861041903495789 -0.16603146493434906 10.0 27.0 2.0 5.0
11.146406 -5.8291273 -1.4876978 0.019158771261572838 -0.9926823973655701 -0.1192244216799736 10.0 27.0 2.0 5.0
10.896467 -5.5585656 -0.50046366 0.02315683662891388 -0.9982191324234009 -0.05497662350535393 9.0 30.0 2.0 5.0
10.92261 -5.7168732 -0.50354689 0.03551860898733139 -0.9978278875350952 0.05547845736145973 16.0 30.0 2.0 5.0
19.973093 -10.193615 -0.34931472 -0.11767297983169556 -0.992670476436615 -0.02753668837249279 18.0 31.0 2.0 6.0
19.904198 -10.422615 -0.3484222 -0.05485799163579941 -0.995609700679779 0.07584162801504135 16.0 31.0 2.0 6.0
0.94564533 -0.84365743 -1.6538261 0.14183636009693146 0.06032344326376915 0.9880503416061401 255.0 0.0 1.0 1.0
0.93503356 -0.85187787 -1.6505716 0.14183636009693146 0.06032344326376915 0.9880503416061401 255.0 0.0 1.0 1.0
