ply
format ascii 1.0
element vertex 430
property float x
property float y
property float z
property float nx
property float ny
property float nz
property float intensity
property float ring
property float return
property float label
end_header
1.1778668 -1.9241172 1.4381744 0.23592783510684967 -0.07717988640069962 -0.9687007665634155 247.0 53.0 1.0 1.0
1.1979094 -1.9117061 1.4381266 0.19641470909118652 -0.03583706542849541 -0.9798657894134521 247.0 53.0 1.0 1.0
1.1363767 -1.8474962 1.4757546 -0.1564895659685135 -0.037389375269412994 -0.9869716167449951 255.0 54.0 1.0 1.0
1.1556197 -1.8355242 1.4757086 -0.1564895659685135 -0.037389375269412994 -0.9869716167449951 255.0 54.0 1.0 1.0
1.0769547 -1.7426434 1.4871413 -0.17634804546833038 -0.03177691623568535 -0.9838148355484009 255.0 55.0 1.0 1.0
1.0968368 -1.7340336 1.4894474 -0.17560486495494843 -0.09701517969369888 -0.9796687960624695 255.0 55.0 1.0 1.0
1.0248519 -1.6485981 1.5036733 -0.14686453342437744 -0.07866000384092331 -0.9860240817070007 255.0 56.0 1.0 1.0
1.0403168 -1.6351398 1.5011832 -0.1276882439851761 -0.07887135446071625 -0.9886733889579773 253.0 56.0 1.0 1.0
0.96943057 -1.549137 1.5113373 -0.12641964852809906 -0.0793762058019638 -0.988796055316925 253.0 57.0 1.0 1.0
0.98555827 -1.5389307 1.5112988 -0.12641964852809906 -0.0793762058019638 -0.988796055316925 255.0 57.0 1.0 1.0
0.92826086 -1.4729333 1.5385643 -0.09394261240959167 -0.8668311238288879 -0.489671915769577 255.0 58.0 1.0 1.0
0.94359243 -1.4631633 1.5385278 -0.1701391041278839 -0.7994279861450195 -0.5761661529541016 255.0 58.0 1.0 1.0
0.91604936 -1.4415426 1.6161804 -0.22285161912441254 -0.6326530575752258 -0.7416786551475525 253.0 59.0 1.0 1.0
0.92787725 -1.4270377 1.6106458 -0.10827557742595673 -0.7293047308921814 -0.6755672097206116 255.0 59.0 1.0 1.0
0.87593806 -1.3651049 1.6467743 -0.1258418709039688 -0.020558342337608337 -0.9918372631072998 255.0 60.0 1.0 1.0
0.88859916 -1.3535478 1.6438904 -0.1258418709039688 -0.020558342337608337 -0.9918372631072998 255.0 60.0 1.0 1.0
0.82040459 -1.2639309 1.6457641 -0.10873829573392868 -0.027328163385391235 -0.9936947226524353 255.0 61.0 1.0 1.0
0.83804816 -1.2620456 1.6545844 -0.10873829573392868 -0.027328163385391235 -0.9936947226524353 255.0 61.0 1.0 1.0
0.77569014 -1.1800269 1.6652145 -0.10824529081583023 -0.06243481487035751 -0.9921616911888123 255.0 62.0 1.0 1.0
0.78796268 -1.1718739 1.6651853 -0.07431486994028091 -0.008677881211042404 -0.9971970915794373 255.0 62.0 1.0 1.0
0.73161983 -1.0957506 1.685472 -0.15626324713230133 -0.05733904615044594 -0.9860497117042542 255.0 63.0 1.0 1.0
0.74161935 -1.0860332 1.6822929 -0.15626324713230133 -0.05733904615044594 -0.9860497117042542 255.0 63.0 1.0 1.0
0.3551105 -1.2372012 -1.6897624 0.17536088824272156 0.05732198804616928 0.9828341007232666 255.0 0.0 1.0 1.0
0.36592743 -1.2264132 -1.6802344 0.1288605034351349 0.009767076931893826 0.9916146397590637 255.0 0.0 1.0 1.0
0.4003759 -1.3580546 -1.7103159 0.13743475079536438 0.0593513548374176 0.9887310862541199 255.0 1.0 1.0 1.0
0.41154629 -1.3440025 -1.6980076 0.09638241678476334 0.017789360135793686 0.9951854348182678 255.0 1.0 1.0 1.0
0.44192499 -1.4679822 -1.715175 0.15563331544399261 0.10010529309511185 0.982729434967041 255.0 2.0 1.0 1.0
0.45564464 -1.4581424 -1.7092388 0.1562192589044571 0.050524868071079254 0.9864293336868286 253.0 2.0 1.0 1.0
0.48974186 -1.5968403 -1.7353876 0.09120994061231613 0.010953517630696297 0.9957715272903442 255.0 3.0 1.0 1.0
0.50555915 -1.5889313 -1.7325418 0.09118710458278656 0.024910010397434235 0.9955222606658936 255.0 3.0 1.0 1.0
0.53921288 -1.7317344 -1.7562941 0.14448338747024536 0.027818333357572556 0.9891161322593689 255.0 4.0 1.0 1.0
0.55639815 -1.7232077 -1.7535512 0.14448338747024536 0.027818333357572556 0.9891161322593689 253.0 4.0 1.0 1.0
0.59019995 -1.8709338 -1.7738358 0.14580614864826202 0.05964614078402519 0.9875134825706482 247.0 5.0 1.0 1.0
0.61064857 -1.8674099 -1.7765706 0.1459646075963974 0.03729325905442238 0.9885866045951843 255.0 5.0 1.0 1.0
0.6465345 -2.0258029 -1.7983795 0.1451578289270401 0.021487751975655556 0.9891751408576965 250.0 6.0 1.0 1.0
0.66287476 -2.0043876 -1.7854952 0.1463959515094757 0.02148379199206829 0.9889927506446838 247.0 6.0 1.0 1.0
0.70328885 -2.1824436 -1.8161639 0.11641250550746918 0.013998767361044884 0.9931022524833679 250.0 7.0 1.0 1.0
0.72905362 -2.1838129 -1.8236825 0.10691331326961517 0.041947703808546066 0.9933830499649048 247.0 7.0 1.0 1.0
0.76546729 -2.3556278 -1.8394358 0.12006918340921402 0.051108259707689285 0.9914491176605225 253.0 8.0 1.0 1.0
0.79108405 -2.3504651 -1.8418846 0.0950368121266365 0.025819892063736916 0.9951388239860535 255.0 8.0 1.0 1.0
0.83424652 -2.5461645 -1.8663607 0.14702583849430084 0.03593405708670616 0.988479733467102 241.0 9.0 1.0 1.0
0.85449296 -2.5186005 -1.8526852 0.10094241797924042 0.03614329919219017 0.9942355751991272 235.0 9.0 1.0 1.0
0.90185159 -2.7365434 -1.8818369 0.09653255343437195 0.042063262313604355 0.9944406151771545 232.0 10.0 1.0 1.0
0.93367273 -2.7363901 -1.8884794 0.08250987529754639 0.044376350939273834 0.9956017136573792 232.0 10.0 1.0 1.0
0.98523188 -2.9705954 -1.9157805 0.103729747235775 0.04476068541407585 0.9935978055000305 223.0 11.0 1.0 1.0
1.0195791 -2.9697273 -1.9221315 0.103729747235775 0.04476068541407585 0.9935978055000305 232.0 11.0 1.0 1.0
1.0822269 -3.2443969 -1.9593362 0.13310909271240234 0.038577813655138016 0.9903502464294434 232.0 12.0 1.0 1.0
1.1047668 -3.2000418 -1.9395033 0.12131325900554657 0.06498315930366516 0.9904848337173462 214.0 12.0 1.0 1.0
1.1676531 -3.4848342 -1.9695203 0.12858399748802185 0.01305751595646143 0.9916126132011414 184.0 13.0 1.0 1.0
1.2109861 -3.4923275 -1.9809633 0.14073917269706726 0.09378892928361893 0.9855943322181702 196.0 13.0 1.0 1.0
1.2960818 -3.8529992 -2.0344336 0.11013296246528625 0.028569867834448814 0.9935060739517212 187.0 14.0 1.0 1.0
1.3292617 -3.8188946 -2.0237741 0.10270924866199493 0.06414460390806198 0.9926410913467407 160.0 14.0 1.0 1.0
1.4270763 -4.2260485 -2.0806339 0.08927550911903381 0.01996694691479206 0.995806872844696 136.0 15.0 1.0 1.0
1.4724157 -4.2142291 -2.0824351 0.0990506038069725 0.046618521213531494 0.9939897656440735 142.0 15.0 1.0 1.0
2.4879959 -4.3083997 -2.1643181 0.11658154428005219 0.027575593441724777 0.9927982687950134 103.0 16.0 1.0 1.0
2.5329425 -4.282043 -2.1644254 0.0981229618191719 0.03985513746738434 0.9943759441375732 109.0 16.0 1.0 1.0
2.7680576 -4.8036528 -2.2349601 0.1351967751979828 0.046050433069467545 0.9897480607032776 34.0 17.0 1.0 1.0
2.8181753 -4.7743344 -2.2350798 0.08614947646856308 -0.02850409410893917 0.9958743453025818 22.0 17.0 1.0 1.0
3.1356225 -5.4553967 -2.3410969 0.15521551668643951 0.06531796604394913 0.985718846321106 34.0 18.0 1.0 1.0
3.2077701 -5.4480238 -2.3524058 0.13790155947208405 0.11891836673021317 0.9832810759544373 38.0 18.0 1.0 1.0
3.6577263 -6.3774033 -2.5139241 0.10095345228910446 -0.5858594179153442 0.8041002154350281 36.0 19.0 1.0 1.0
3.6648092 -6.2375498 -2.4739151 0.07307516038417816 -0.8297633528709412 0.5533106923103333 166.0 19.0 1.0 1.0
4.3144398 -7.5356336 -2.7150643 0.13703757524490356 -0.06617414951324463 0.9883530139923096 38.0 20.0 1.0 1.0
3.6974604 -6.3047891 -2.2850394 0.13217328488826752 -0.9876614809036255 0.08399467915296555 193.0 20.0 1.0 1.0
4.5485039 -7.959166 -2.6044629 -0.0028700989205390215 -0.9953866600990295 0.09590165317058563 214.0 21.0 1.0 1.0
3.7058475 -6.3308716 -2.0837154 0.04297396540641785 -0.9969103932380676 0.06574903428554535 172.0 21.0 1.0 1.0
4.5744801 -8.0197287 -2.3622048 -0.005280063021928072 -0.9998270869255066 0.01783064380288124 226.0 22.0 1.0 1.0
3.7232263 -6.372426 -1.887884 0.11997025460004807 -0.992708683013916 -0.01168895699083805 178.0 22.0 1.0 1.0
4.5750322 -8.03265 -2.1110141 -0.016377832740545273 -0.9984764456748962 0.05269375443458557 202.0 23.0 1.0 1.0
3.7210054 -6.3780146 -1.6858449 0.11550705134868622 -0.991245448589325 0.06395722925662994 163.0 23.0 1.0 1.0
4.5948505 -8.0761938 -1.8704956 -0.016930632293224335 -0.9946034550666809 0.1023586243391037 217.0 24.0 1.0 1.0
3.7466781 -6.428885 -1.4975294 0.1900804042816162 -0.9799624085426331 0.059524036943912506 169.0 24.0 1.0 1.0
4.6062779 -8.1083755 -1.6268951 -0.019247567281126976 -0.9984928369522095 0.051397498697042465 211.0 25.0 1.0 1.0
3.7489645 -6.4423122 -1.299987 0.2306830734014511 -0.972952663898468 0.012184498831629753 154.0 25.0 1.0 1.0
4.6270757 -8.1505356 -1.3864036 -0.02551049366593361 -0.9985876083374023 0.046604566276073456 214.0 26.0 1.0 1.0
3.7647483 -6.4737916 -1.1074265 0.15915954113006592 -0.9864482283592224 0.039852574467659 133.0 26.0 1.0 1.0
4.6353526 -8.1740341 -1.1452579 -0.010274241678416729 -0.9998196363449097 -0.01597118005156517 211.0 27.0 1.0 1.0
3.7707543 -6.4911203 -0.91455984 0.21114803850650787 -0.9763988852500916 0.04540591686964035 133.0 27.0 1.0 1.0
4.6557736 -8.2156649 -0.90546495 0.04428717494010925 -0.9968238472938538 0.06618768721818924 214.0 28.0 1.0 1.0
3.7814255 -6.5139003 -0.72186363 0.2674209475517273 -0.961590588092804 0.06188247725367546 139.0 28.0 1.0 1.0
4.669199 -8.2450104 -0.66381997 0.0005241158069111407 -0.9992029070854187 0.03991517052054405 220.0 29.0 1.0 1.0
3.7996039 -6.5496449 -0.53015172 0.16226093471050262 -0.9866800904273987 -0.011568070389330387 148.0 29.0 1.0 1.0
4.6770301 -8.2611637 -0.42192888 0.0010243757860735059 -0.9991713166236877 0.040688157081604004 211.0 30.0 1.0 1.0
3.8063989 -6.5631852 -0.33689931 0.21663105487823486 -0.9759566187858582 0.024077201262116432 142.0 30.0 1.0 1.0
4.709394 -8.3206482 -0.18146269 -0.03815989941358566 -0.9937922358512878 0.10450263321399689 226.0 31.0 1.0 1.0
3.8227484 -6.5932026 -0.14434627 0.16106392443180084 -0.9864570498466492 0.030998006463050842 142.0 31.0 1.0 1.0
3.7684143 -10.914625 0.081616111 -0.12411466240882874 -0.07793089002370834 -0.9892029166221619 35.0 32.0 1.0 1.0
3.8649697 -10.825589 0.080982052 -0.15003442764282227 -0.08606867492198944 -0.9849272966384888 39.0 32.0 1.0 1.0
3.1829395 -9.2285471 0.31796658 -0.5418859124183655 -0.08219436556100845 -0.8364231586456299 41.0 33.0 1.0 1.0
3.3277414 -9.3302603 0.32238436 -0.1595442295074463 -0.06150468438863754 -0.9852729439735413 50.0 33.0 1.0 1.0
2.7771804 -8.0513687 0.4950836 -0.1493862420320511 -0.05599924176931381 -0.9871918559074402 19.0 34.0 1.0 1.0
2.8478744 -7.9842396 0.49256814 -0.10093816369771957 -0.01857302151620388 -0.9947192668914795 37.0 34.0 1.0 1.0
2.4500792 -7.1064663 0.62990248 -0.09620310366153717 -0.05012800171971321 -0.9940986633300781 46.0 35.0 1.0 1.0
2.5243216 -7.0804276 0.62972158 -0.1497143805027008 -0.041494060307741165 -0.9878581166267395 67.0 35.0 1.0 1.0
2.2126038 -6.4243088 0.74484909 -0.2557721734046936 -0.029053987935185432 -0.9663004279136658 115.0 36.0 1.0 1.0
2.2850564 -6.4157782 0.74642432 -0.5896070003509521 -0.03278423473238945 -0.8070246577262878 133.0 36.0 1.0 1.0
2.0037086 -5.8238354 0.83630198 -0.08726629614830017 0.00351214618422091 -0.9961788654327393 151.0 37.0 1.0 1.0
2.0592253 -5.7876101 0.83400595 -0.10382277518510818 -0.06349819153547287 -0.9925667643547058 145.0 37.0 1.0 1.0
1.8290313 -5.3246846 0.91201842 -0.13043652474880219 -0.0713232159614563 -0.9888879656791687 172.0 38.0 1.0 1.0
1.8859735 -5.3089747 0.91252124 -0.09482164680957794 -0.003112165257334709 -0.9954894185066223 184.0 38.0 1.0 1.0
1.7081554 -4.9778633 0.99219459 -0.35585108399391174 -0.0005375336040742695 -0.9345424771308899 214.0 39.0 1.0 1.0
1.746987 -4.922678 0.98467022 -0.4685196578502655 -0.12747907638549805 -0.8742073178291321 199.0 39.0 1.0 1.0
1.5573747 -4.5458374 1.0356091 -0.13223132491111755 -0.04707891866564751 -0.9901001453399658 193.0 40.0 1.0 1.0
1.6074677 -4.5366683 1.0371763 -0.1313268393278122 -0.06124909594655037 -0.989445149898529 211.0 40.0 1.0 1.0
1.4558405 -4.2586775 1.0935016 -0.09584053605794907 -0.02883065491914749 -0.9949790239334106 244.0 41.0 1.0 1.0
1.4886386 -4.2102385 1.0849056 -0.12043634057044983 -0.07316038757562637 -0.9900215864181519 217.0 41.0 1.0 1.0
1.3523492 -3.9645841 1.1338058 -0.1146019995212555 -0.04342016577720642 -0.992462158203125 232.0 42.0 1.0 1.0
1.4066161 -3.9866335 1.1441426 -0.14068211615085602 -0.05611848458647728 -0.9884630441665649 255.0 42.0 1.0 1.0
1.2722881 -3.7400975 1.1821527 -0.09370990842580795 -0.06037049740552902 -0.993767499923706 253.0 43.0 1.0 1.0
1.3024243 -3.7012892 1.1740395 -0.09380826354026794 -0.03939512372016907 -0.9948105216026306 232.0 43.0 1.0 1.0
1.1927449 -3.515928 1.2188685 -0.023381678387522697 -0.032797671854496 -0.9991885423660278 238.0 44.0 1.0 1.0
1.2181112 -3.4709961 1.2075611 -0.12706267833709717 -0.027466140687465668 -0.9915143251419067 217.0 44.0 1.0 1.0
1.1270747 -3.331471 1.2596052 -0.20568543672561646 -0.08203751593828201 -0.9751734733581543 255.0 45.0 1.0 1.0
1.1631052 -3.3230634 1.2608681 -0.14827297627925873 -0.022911997511982918 -0.9886809587478638 255.0 45.0 1.0 1.0
1.0458641 -3.1018324 1.2716842 -0.2302768975496292 -0.052221741527318954 -0.9717229604721069 244.0 46.0 1.0 1.0
1.0819389 -3.1012948 1.2759475 -0.17275501787662506 -0.07094180583953857 -0.982406735420227 244.0 46.0 1.0 1.0
0.99903029 -2.9710376 1.3165644 -0.14014026522636414 -0.044068168848752975 -0.9891504645347595 255.0 47.0 1.0 1.0
1.0239745 -2.9430249 1.3087488 -0.13987796008586884 -0.07533067464828491 -0.9872990846633911 255.0 47.0 1.0 1.0
1.4749885 -2.5681555 1.3418063 -0.15501780807971954 -0.027382398024201393 -0.9875321984291077 255.0 48.0 1.0 1.0
1.5091623 -2.565151 1.3483409 -0.12534287571907043 -0.04121080040931702 -0.9912571907043457 255.0 48.0 1.0 1.0
1.4065899 -2.4430022 1.3725815 -0.15929730236530304 -0.09247098118066788 -0.9828904271125793 255.0 49.0 1.0 1.0
1.4210733 -2.4095864 1.3620206 -0.15995903313159943 -0.017221970483660698 -0.9869734048843384 255.0 49.0 1.0 1.0
1.3366402 -2.3148601 1.3955539 -0.1287403404712677 -0.044260766357183456 -0.9906901121139526 255.0 50.0 1.0 1.0
1.3607669 -2.3007634 1.3954964 -0.1288345754146576 -0.022304655984044075 -0.9914152026176453 255.0 50.0 1.0 1.0
1.2919258 -2.2291412 1.4397333 -0.5095331072807312 -0.04140196368098259 -0.8594544529914856 255.0 51.0 1.0 1.0
1.308014 -2.2035136 1.4318763 -0.20479732751846313 -0.047096721827983856 -0.9776706695556641 255.0 51.0 1.0 1.0
1.2132765 -2.0866771 1.4415247 -0.03779318183660507 -0.08260592818260193 -0.9958654642105103 253.0 52.0 1.0 1.0
1.2350198 -2.0738857 1.4414729 -0.3188435733318329 -0.07029877603054047 -0.9451967477798462 247.0 52.0 1.0 1.0
1.1578209 -1.9832177 1.4640832 0.27428174018859863 0.03406611084938049 -0.9610458016395569 255.0 53.0 1.0 1.0
1.1750154 -1.9652271 1.4597346 0.2200552225112915 -0.023698164150118828 -0.9751995205879211 255.0 53.0 1.0 1.0
1.0941428 -1.8651067 1.471362 -0.1562306433916092 -0.07864202558994293 -0.9845849275588989 255.0 54.0 1.0 1.0
1.1101589 -1.8479102 1.4668163 -0.1451813280582428 -0.0673939511179924 -0.9871070981025696 255.0 54.0 1.0 1.0
1.0320461 -1.7508004 1.4754932 -0.1634393334388733 -0.09089202433824539 -0.9823575019836426 255.0 55.0 1.0 1.0
1.0603418 -1.7565413 1.4895473 -0.17634804546833038 -0.03177691623568535 -0.9838148355484009 255.0 55.0 1.0 1.0
0.99177927 -1.6723336 1.5062169 -0.1471339613199234 -0.05037334933876991 -0.9878330826759338 255.0 56.0 1.0 1.0
1.0108413 -1.6645868 1.5086248 -0.14686453342437744 -0.07866000384092331 -0.9860240817070007 255.0 56.0 1.0 1.0
0.9415887 -1.576948 1.5190729 -0.09318356961011887 -0.5769882202148438 -0.8114194869995117 255.0 57.0 1.0 1.0
0.96123236 -1.5722872 1.5241321 -0.11077394336462021 -0.5593966841697693 -0.8214648962020874 255.0 57.0 1.0 1.0
0.92050105 -1.5304558 1.5783817 -0.06525900214910507 -0.5724403262138367 -0.8173452615737915 250.0 58.0 1.0 1.0
0.91438007 -1.4850674 1.5412592 -0.01444147527217865 -0.9040579199790955 -0.4271659851074219 244.0 58.0 1.0 1.0
0.8857193 -1.4603204 1.6162614 -0.11787072569131851 -0.04762301594018936 -0.9918862581253052 253.0 59.0 1.0 1.0
0.90706712 -1.4608608 1.6272231 -0.09069068729877472 -0.6398078203201294 -0.763165295124054 255.0 59.0 1.0 1.0
0.83692873 -1.3663225 1.6268985 -0.14729349315166473 -0.009962804615497589 -0.9890426993370056 255.0 60.0 1.0 1.0
0.85862333 -1.369393 1.6411157 -0.1521744281053543 -0.020481735467910767 -0.9881413578987122 255.0 60.0 1.0 1.0
0.80095023 -1.2922065 1.6605875 -0.10877854377031326 0.002657394390553236 -0.9940624833106995 255.0 61.0 1.0 1.0
0.81149518 -1.2792265 1.654654 -0.10877854377031326 0.002657394390553236 -0.9940624833106995 255.0 61.0 1.0 1.0
0.74673021 -1.1893561 1.6561246 -0.12544846534729004 -0.04177939519286156 -0.9912199974060059 255.0 62.0 1.0 1.0
0.76190704 -1.1858516 1.6621979 -0.12544846534729004 -0.04177939519286156 -0.9912199974060059 255.0 62.0 1.0 1.0
0.70591599 -1.1065904 1.6792264 -0.15626324713230133 -0.05733904615044594 -0.9860497117042542 255.0 63.0 1.0 1.0
0.72012436 -1.1032904 1.6855034 -0.15626324713230133 -0.05733904615044594 -0.9860497117042542 255.0 63.0 1.0 1.0
4.5518346 -7.7749233 -2.559741 0.04297396540641785 -0.9969103932380676 0.06574903428554535 6.0 21.0 2.0 1.0
4.5662479 -7.8141088 -2.3156979 0.11997025460004807 -0.992708683013916 -0.01168895699083805 11.0 22.0 2.0 1.0
4.570384 -7.8327131 -2.0710361 0.11550705134868622 -0.991245448589325 0.06395722925662994 14.0 23.0 2.0 1.0
4.5843058 -7.8650036 -1.8326985 0.19246210157871246 -0.9796007871627808 0.05779891461133957 15.0 24.0 2.0 1.0
4.5877781 -7.8825932 -1.5912381 0.2306830734014511 -0.972952663898468 0.012184498831629753 16.0 25.0 2.0 1.0
4.596694 -7.9032488 -1.3525397 0.15915954113006592 -0.9864482283592224 0.039852574467659 16.0 26.0 2.0 1.0
4.5989203 -7.9156251 -1.115822 0.21114803850650787 -0.9763988852500916 0.04540591686964035 17.0 27.0 2.0 1.0
4.7315049 -8.1492157 -0.90370417 0.2674209475517273 -0.961590588092804 0.06188247725367546 85.0 28.0 2.0 1.0
4.753232 -8.1921892 -0.66369361 0.16226093471050262 -0.9866800904273987 -0.011568070389330387 82.0 29.0 2.0 1.0
4.7612267 -8.2082596 -0.42190483 0.21663105487823486 -0.9759566187858582 0.024077201262116432 55.0 30.0 2.0 1.0
4.6637421 -8.0425634 -0.17654078 0.16106392443180084 -0.9864570498466492 0.030998006463050842 16.0 31.0 2.0 1.0
0.3304556 -1.2491422 -1.6960719 0.17554207146167755 0.03500048816204071 0.9838495254516602 255.0 0.0 1.0 1.0
0.34283754 -1.2432292 -1.6929172 0.17536088824272156 0.05732198804616928 0.9828341007232666 255.0 0.0 1.0 1.0
0.37126479 -1.3637893 -1.7071598 0.13759289681911469 0.03504057228565216 0.9898688197135925 255.0 1.0 1.0 1.0
0.38549122 -1.3597727 -1.7071944 0.13743475079536438 0.0593513548374176 0.9887310862541199 255.0 1.0 1.0 1.0
0.40902361 -1.4693313 -1.7061374 0.18816283345222473 -0.012599790468811989 0.9820570349693298 255.0 2.0 1.0 1.0
0.42732716 -1.4751322 -1.7181219 0.1844175010919571 0.06758133322000504 0.9805217981338501 255.0 2.0 1.0 1.0
0.45780036 -1.6121777 -1.7410746 0.13607291877269745 0.05635470896959305 0.9890947341918945 255.0 3.0 1.0 1.0
0.4691115 -1.5886551 -1.720911 0.09120994061231613 0.010953517630696297 0.9957715272903442 241.0 3.0 1.0 1.0
0.50611013 -1.7537779 -1.7673471 0.11446069926023483 0.04242878779768944 0.9925212264060974 255.0 4.0 1.0 1.0
0.51944894 -1.7318406 -1.7506707 0.11446069926023483 0.04242878779768944 0.9925212264060974 253.0 4.0 1.0 1.0
0.55264592 -1.8886776 -1.7791069 0.11558841168880463 0.010727337561547756 0.9932392835617065 255.0 5.0 1.0 1.0
0.57062972 -1.8770623 -1.7737811 0.11554672569036484 0.028918446972966194 0.9928810596466064 250.0 5.0 1.0 1.0
0.6023159 -2.0331593 -1.7930934 0.1509060561656952 0.08348207175731659 0.9850167632102966 241.0 6.0 1.0 1.0
0.62713873 -2.0383444 -1.8034931 0.1509060561656952 0.08348207175731659 0.9850167632102966 255.0 6.0 1.0 1.0
0.65931726 -2.2028046 -1.8210168 0.10936235636472702 0.042432866990566254 0.9930958151817322 250.0 7.0 1.0 1.0
0.67765367 -2.1807694 -1.8086354 0.11641250550746918 0.013998767361044884 0.9931022524833679 238.0 7.0 1.0 1.0
0.7123329 -2.3589706 -1.829749 0.12943202257156372 0.050155602395534515 0.990319013595581 241.0 8.0 1.0 1.0
0.74081045 -2.3635678 -1.8393633 0.12012657523155212 0.040721721947193146 0.9919230341911316 250.0 8.0 1.0 1.0
0.77699429 -2.5506439 -1.857057 0.13681305944919586 0.051367100328207016 0.989264190196991 238.0 9.0 1.0 1.0
0.80263656 -2.5391829 -1.8548319 0.13696272671222687 0.021339092403650284 0.990346372127533 247.0 9.0 1.0 1.0
0.84639424 -2.761344 -1.8860618 0.10734721273183823 0.038224175572395325 0.9934865236282349 232.0 10.0 1.0 1.0
0.87014788 -2.7363272 -1.8751786 0.1072753369808197 0.0528947189450264 0.9928213357925415 220.0 10.0 1.0 1.0
0.91986644 -2.9809222 -1.9093354 0.10684821009635925 0.04518907144665718 0.993247926235199 226.0 11.0 1.0 1.0
0.95620501 -2.9872997 -1.9198688 0.11923914402723312 0.05435458570718765 0.9913766384124756 232.0 11.0 1.0 1.0
1.0027912 -3.2300327 -1.9372444 0.10136587917804718 0.019183196127414703 0.9946643114089966 211.0 12.0 1.0 1.0
1.0343961 -3.2126911 -1.9333439 0.10129805654287338 0.04129158332943916 0.9939988255500793 211.0 12.0 1.0 1.0
1.102909 -3.5355546 -1.9844543 0.10525986552238464 -0.031888145953416824 0.9939334392547607 205.0 13.0 1.0 1.0
1.1398374 -3.5237501 -1.9845442 0.1277880072593689 0.039916787296533585 0.9909979104995728 205.0 13.0 1.0 1.0
1.2130469 -3.8725991 -2.030623 0.13268445432186127 0.040404945611953735 0.9903343319892883 190.0 14.0 1.0 1.0
1.2468617 -3.8392198 -2.0199647 0.11006570607423782 0.045125868171453476 0.9928993582725525 160.0 14.0 1.0 1.0
1.339429 -4.258594 -2.0820785 0.103498175740242 0.01889059506356716 0.9944502711296082 139.0 15.0 1.0 1.0
1.383917 -4.2442698 -2.0821867 0.10341617465019226 0.04404707998037338 0.9936623573303223 139.0 15.0 1.0 1.0
2.4026084 -4.3693352 -2.1688468 0.13372504711151123 0.09019782394170761 0.9869052171707153 124.0 16.0 1.0 1.0
2.4409893 -4.3310947 -2.162565 0.06917782127857208 0.011322466656565666 0.9975400567054749 115.0 16.0 1.0 1.0
2.6794298 -4.8834696 -2.2451453 0.0839286521077156 0.05990520492196083 0.9946694374084473 46.0 17.0 1.0 1.0
2.7285683 -4.8518424 -2.2437694 0.12531746923923492 0.04217817634344101 0.991219699382782 22.0 17.0 1.0 1.0
3.0333681 -5.5430312 -2.3505337 0.13496236503124237 0.016097458079457283 0.9907199740409851 34.0 18.0 1.0 1.0
3.0930476 -5.5141602 -2.3520679 0.10309202969074249 0.014345989562571049 0.9945682883262634 34.0 18.0 1.0 1.0
3.5470319 -6.4959421 -2.5303683 0.12885573506355286 0.03055603615939617 0.9911924600601196 36.0 19.0 1.0 1.0
3.6037319 -6.4385567 -2.5227571 0.05767129734158516 0.01739676669239998 0.9981840252876282 36.0 19.0 1.0 1.0
4.1923089 -7.6915398 -2.7384882 0.16269704699516296 0.009887556545436382 0.9866265058517456 43.0 20.0 1.0 1.0
4.252099 -7.6104846 -2.7255366 0.17846739292144775 0.08878102898597717 0.9799323081970215 44.0 20.0 1.0 1.0
4.480227 -8.2353268 -2.6630476 -0.6685060858726501 -0.1530090570449829 0.7277966141700745 172.0 21.0 1.0 1.0
4.5436897 -8.147563 -2.6501219 -0.02115999534726143 -0.996646523475647 0.07904405146837234 214.0 21.0 1.0 1.0
4.5091863 -8.3045998 -2.4172785 -0.007649432867765427 -0.9973079562187195 -0.07292753458023071 26.0 22.0 1.0 0.0
4.5675855 -8.2060747 -2.4025977 -0.020462075248360634 -0.9967953562736511 0.07733286172151566 220.0 22.0 1.0 1.0
4.5267291 -8.3496342 -2.1684561 0.3195219337940216 -0.9316307902336121 0.1731179803609848 19.0 23.0 1.0 1.0
4.581665 -8.2437744 -2.1535079 -0.0533902607858181 -0.9974584579467773 0.04718207195401192 217.0 23.0 1.0 1.0
4.4976263 -8.305234 -1.9008121 -0.12349189072847366 -0.9212930798530579 -0.3687395453453064 13.0 24.0 1.0 0.0
4.5747957 -8.2404814 -1.897067 -0.06666518747806549 -0.9756237864494324 0.209078848361969 193.0 24.0 1.0 1.0
10.040134 -18.561798 -3.6838605 0.05825725197792053 -0.9971606731414795 0.04771340265870094 16.0 25.0 1.0 5.0
4.5975938 -8.2940598 -1.6541295 -0.052372273057699203 -0.9944331049919128 0.0914328396320343 190.0 25.0 1.0 1.0
10.072912 -18.635437 -3.1357205 -0.005471251904964447 -0.9999399185180664 0.009500418789684772 18.0 26.0 1.0 5.0
4.6143894 -8.3301048 -1.4083781 -0.04581368342041969 -0.9979554414749146 0.04456441104412079 205.0 26.0 1.0 1.0
4.7235832 -8.7515163 -1.2116462 -0.009923332370817661 -0.9249206781387329 -0.3800305426120758 24.0 27.0 1.0 2.0
4.6264534 -8.3611174 -1.1643471 -0.01762714795768261 -0.9997535943984985 -0.013491179794073105 205.0 27.0 1.0 1.0
10.125634 -18.767176 -2.0466924 0.04971237853169441 -0.9849485754966736 0.1655442863702774 17.0 28.0 1.0 5.0
4.6408262 -8.3929129 -0.91931814 -0.041432738304138184 -0.9981696605682373 0.044051531702280045 196.0 28.0 1.0 1.0
10.153088 -18.831318 -1.5007056 0.02961636707186699 -0.9977742433547974 0.05974551662802696 12.0 29.0 1.0 5.0
4.6559834 -8.4261799 -0.67416835 -0.039347175508737564 -0.9980880618095398 0.047663912177085876 211.0 29.0 1.0 1.0
4.7666445 -8.8462582 -0.44620696 -0.049349188804626465 -0.9334395527839661 -0.3553241193294525 13.0 30.0 1.0 1.0
4.6733999 -8.4600973 -0.42929429 -0.00451189000159502 -0.9986158013343811 0.05240330100059509 196.0 30.0 1.0 1.0
4.6897111 -8.4920387 -0.18383735 -0.02256912924349308 -0.9985410571098328 0.04905446991324425 205.0 31.0 1.0 1.0
3.64698 -11.326195 0.08471965 -0.20940694212913513 -0.7202174067497253 -0.661389172077179 36.0 32.0 1.0 1.0
3.705827 -11.109052 0.083133146 -0.15605176985263824 -0.8960613012313843 -0.41559845209121704 34.0 32.0 1.0 1.0
2.9963586 -9.3160105 0.31930265 -0.20410987734794617 -0.08716990798711777 -0.9750592112541199 41.0 33.0 1.0 1.0
3.0380659 -9.1172466 0.31336924 -0.4944232106208801 -0.09697913378477097 -0.8637943863868713 41.0 33.0 1.0 1.0
2.587193 -8.0431261 0.49163571 -0.1370716691017151 -0.052823506295681 -0.989151656627655 38.0 34.0 1.0 1.0
2.6914537 -8.0762081 0.49513224 -0.10194133222103119 0.0019389161607250571 -0.9947885274887085 43.0 34.0 1.0 1.0
2.2995369 -7.1523981 0.62999648 -0.1090054139494896 -0.012423654086887836 -0.9939634203910828 25.0 35.0 1.0 1.0
2.376792 -7.1354961 0.63048106 -0.14383971691131592 -0.08418366312980652 -0.9860137104988098 52.0 35.0 1.0 1.0
2.0861413 -6.4957013 0.74827904 -0.29793524742126465 -0.10179531574249268 -0.9491429328918457 118.0 36.0 1.0 1.0
2.1364183 -6.4206944 0.74202543 -0.2599937617778778 -0.012577557936310768 -0.9655283093452454 94.0 36.0 1.0 1.0
1.8862003 -5.8795762 0.83879888 -0.14084334671497345 -0.08211255073547363 -0.9866208434104919 169.0 37.0 1.0 1.0
1.9426214 -5.84447 0.83650082 -0.08665543049573898 -0.07784023880958557 -0.9931926727294922 163.0 37.0 1.0 1.0
1.7219907 -5.3768163 0.91488987 -0.1172446683049202 -0.015838196501135826 -0.992976725101471 181.0 38.0 1.0 1.0
1.7831419 -5.3734927 0.91730762 -0.1407739818096161 -0.033914342522621155 -0.9894607067108154 193.0 38.0 1.0 1.0
1.5891926 -4.9675713 0.98360872 -0.37854254245758057 -0.046289607882499695 -0.9244256615638733 166.0 39.0 1.0 1.0
1.6410851 -4.9506731 0.98348266 -0.3907206952571869 -0.11978905647993088 -0.9126816391944885 184.0 39.0 1.0 1.0
1.4666492 -4.5923004 1.0392445 -0.09384649246931076 -0.04877418279647827 -0.9943912029266357 214.0 40.0 1.0 1.0
1.5207682 -4.5952678 1.0433363 -0.1319521814584732 -0.08015520125627518 -0.9880099892616272 232.0 40.0 1.0 1.0
1.365205 -4.284471 1.0928088 -0.09192274510860443 -0.013839630410075188 -0.9956700205802917 238.0 41.0 1.0 1.0
1.4184985 -4.2957935 1.0993032 -0.09178627282381058 -0.05619562044739723 -0.9941918253898621 250.0 41.0 1.0 1.0
1.274935 -4.0103726 1.1392587 -0.12323889881372452 -0.015797073021531105 -0.9922513365745544 247.0 42.0 1.0 1.0
1.3119807 -3.9821548 1.1349809 -0.11446627974510193 -0.0651770532131195 -0.9912868142127991 232.0 42.0 1.0 1.0
1.1983751 -3.7804694 1.1869543 -0.16043607890605927 -0.10374990850687027 -0.9815784096717834 255.0 43.0 1.0 1.0
1.2330654 -3.7531731 1.1822758 -0.1605949103832245 -0.09383193403482437 -0.9825501441955566 247.0 43.0 1.0 1.0
1.1234952 -3.5545638 1.2240603 -0.07643570750951767 -0.13177433609962463 -0.9883284568786621 232.0 44.0 1.0 1.0
1.1511343 -3.5137362 1.2139968 -0.10727646946907043 -0.058799389749765396 -0.9924890398979187 226.0 44.0 1.0 1.0
1.0469074 -3.321954 1.2476677 0.07545384019613266 -0.010966228321194649 -0.9970890283584595 250.0 45.0 1.0 1.0
1.0804242 -3.3072531 1.2462355 0.05854792147874832 -0.08738918602466583 -0.9944522380828857 244.0 45.0 1.0 1.0
0.99640149 -3.1727815 1.2921307 -0.22108544409275055 -0.09416889399290085 -0.9706974029541016 255.0 46.0 1.0 1.0
1.0249045 -3.1480181 1.2862599 -0.2211971879005432 -0.08868850767612457 -0.9711880683898926 255.0 46.0 1.0 1.0
0.93443727 -2.9841979 1.3136387 -0.11271647363901138 0.016097890213131905 -0.9934967756271362 255.0 47.0 1.0 1.0
0.97016007 -2.9883032 1.3197557 -0.12588658928871155 0.029451753944158554 -0.9916073679924011 255.0 47.0 1.0 1.0
1.4261923 -2.6079969 1.346908 -0.14481282234191895 -0.05726432055234909 -0.9878005981445312 255.0 48.0 1.0 1.0
1.4408931 -2.5707052 1.3352945 -0.15482226014137268 -0.05717654153704643 -0.986286461353302 255.0 48.0 1.0 1.0
1.3603721 -2.481307 1.3779764 -0.22702158987522125 -0.03251497074961662 -0.9733468294143677 255.0 49.0 1.0 1.0
1.3703572 -2.4387455 1.3621628 -0.1561313271522522 -0.08455416560173035 -0.9841105341911316 255.0 49.0 1.0 1.0
1.2930614 -2.3515868 1.4012414 -0.13210830092430115 -0.07175260782241821 -0.9886350035667419 255.0 50.0 1.0 1.0
1.3140867 -2.3317692 1.3974822 -0.12205574661493301 -0.044298481196165085 -0.9915341734886169 255.0 50.0 1.0 1.0
1.2314925 -2.231185 1.4242586 -0.504178524017334 -0.0814845860004425 -0.8597466945648193 255.0 51.0 1.0 1.0
1.2599162 -2.2273078 1.4300548 -0.5064557194709778 -0.08456699550151825 -0.8581089973449707 255.0 51.0 1.0 1.0
1.1760374 -2.1235604 1.4498478 -0.0946330800652504 -0.11383158713579178 -0.9889828562736511 255.0 52.0 1.0 1.0
1.1879787 -2.0932465 1.4374928 -0.03779318183660507 -0.08260592818260193 -0.9958654642105103 241.0 52.0 1.0 1.0
1.1243061 -2.0216808 1.4749476 -0.12113577127456665 -0.0991833433508873 -0.9876683354377747 255.0 53.0 1.0 1.0
1.1470478 -2.0127537 1.4770472 -0.12113577127456665 -0.0991833433508873 -0.9876683354377747 255.0 53.0 1.0 1.0
1.053285 -1.8846459 1.4692191 -0.13009344041347504 0.01588350161910057 -0.9913744926452637 255.0 54.0 1.0 1.0
1.0663341 -1.8620697 1.4601729 -0.15670746564865112 -0.010445564053952694 -0.9875898957252502 255.0 54.0 1.0 1.0
1.0015686 -1.7832297 1.4849924 -0.1634393334388733 -0.09089202433824539 -0.9823575019836426 255.0 55.0 1.0 1.0
1.0201466 -1.772673 1.4849482 -0.1634393334388733 -0.09089202433824539 -0.9823575019836426 255.0 55.0 1.0 1.0
0.95815843 -1.6954046 1.5087614 -0.09473340213298798 -0.7008570432662964 -0.7069829702377319 255.0 56.0 1.0 1.0
0.96946585 -1.6743702 1.4989212 -0.1471339613199234 -0.05037334933876991 -0.9878330826759338 255.0 56.0 1.0 1.0
0.9145301 -1.606944 1.5293595 -0.20370031893253326 -0.9282248616218567 -0.3112952709197998 255.0 57.0 1.0 1.0
0.92815423 -1.5919883 1.5242208 -0.10825397819280624 -0.573374330997467 -0.8121102452278137 255.0 57.0 1.0 1.0
0.90325224 -1.5752881 1.6049587 -0.1204432025551796 -0.5694870352745056 -0.8131285309791565 255.0 58.0 1.0 1.0
0.92117959 -1.5683576 1.6075686 -0.06525900214910507 -0.5724403262138367 -0.8173452615737915 255.0 58.0 1.0 1.0
0.85500234 -1.4784589 1.6163427 -0.14587782323360443 -0.032950207591056824 -0.9887536764144897 255.0 59.0 1.0 1.0
0.86000609 -1.4519769 1.5970583 -0.11787072569131851 -0.04762301594018936 -0.9918862581253052 250.0 59.0 1.0 1.0
0.81528836 -1.3955631 1.6412259 -0.14722567796707153 -0.031931113451719284 -0.9885873198509216 255.0 60.0 1.0 1.0
0.82403761 -1.377359 1.6297901 -0.14729349315166473 -0.009962804615497589 -0.9890426993370056 255.0 60.0 1.0 1.0
0.77101594 -1.3039596 1.6547563 -0.11074326187372208 -0.020124970003962517 -0.993645191192627 255.0 61.0 1.0 1.0
0.78318441 -1.2935405 1.6517733 -0.11076531559228897 0.0026568076573312283 -0.9938430190086365 255.0 61.0 1.0 1.0
0.72438568 -1.2090724 1.6622919 -0.09692757576704025 -0.03622884675860405 -0.994631826877594 255.0 62.0 1.0 1.0
0.73967892 -1.2058581 1.668365 -0.12832467257976532 -0.05967089906334877 -0.9899354577064514 255.0 62.0 1.0 1.0
0.68521708 -1.1252373 1.68559 -0.15546400845050812 -0.11600669473409653 -0.9810063242912292 255.0 63.0 1.0 1.0
0.6916945 -1.109687 1.6729531 -0.15546400845050812 -0.11600669473409653 -0.9810063242912292 255.0 63.0 1.0 1.0
10.11599 -18.736162 -2.5970285 -0.009923332370817661 -0.9249206781387329 -0.3800305426120758 7.0 27.0 2.0 5.0
0.31502405 -1.2432075 -1.6832954 0.17554207146167755 0.03500048816204071 0.9838495254516602 255.0 0.0 1.0 1.0
0.3020221 -1.2464919 -1.6832637 0.17554207146167755 0.03500048816204071 0.9838495254516602 255.0 0.0 1.0 1.0
0.35443434 -1.3578008 -1.6947823 0.13759289681911469 0.03504057228565216 0.9898688197135925 255.0 1.0 1.0 1.0
0.34457248 -1.3787742 -1.7163457 0.15693651139736176 0.05477580055594444 0.9860885739326477 255.0 1.0 1.0 1.0
0.39642948 -1.4838607 -1.7180445 0.14266088604927063 0.045728251338005066 0.9887147545814514 255.0 2.0 1.0 1.0
0.3782514 -1.4776771 -1.7060605 0.14266088604927063 0.045728251338005066 0.9887147545814514 255.0 2.0 1.0 1.0
0.43875304 -1.6089187 -1.7323714 0.1362093985080719 0.03428110480308533 0.9900867342948914 255.0 3.0 1.0 1.0
0.42402521 -1.621516 -1.7409889 0.10816998034715652 0.0344005711376667 0.9935370087623596 255.0 3.0 1.0 1.0
0.48469335 -1.7479734 -1.7561508 0.1144353449344635 0.047355037182569504 0.992301344871521 255.0 4.0 1.0 1.0
0.46639612 -1.7530087 -1.7561064 0.13910964131355286 0.07234503328800201 0.9876308441162109 250.0 4.0 1.0 1.0
0.53450257 -1.9001151 -1.7844257 0.11558841168880463 0.010727337561547756 0.9932392835617065 255.0 5.0 1.0 1.0
0.51073325 -1.8913634 -1.7709441 0.09108889102935791 0.057884760200977325 0.9941589832305908 253.0 5.0 1.0 1.0
0.57853049 -2.0306053 -1.7852731 0.1514107584953308 0.017766624689102173 0.988311231136322 247.0 6.0 1.0 1.0
0.55888397 -2.0424929 -1.7903949 0.16238057613372803 0.04326657950878143 0.9857792258262634 247.0 6.0 1.0 1.0
0.63192058 -2.194592 -1.8085144 0.10936816781759262 0.041165124624967575 0.9931485652923584 244.0 7.0 1.0 1.0
0.61228961 -2.2132201 -1.8184074 0.10936816781759262 0.041165124624967575 0.9931485652923584 253.0 7.0 1.0 1.0
0.69482625 -2.3909972 -1.8487848 0.10150031000375748 0.003308746963739395 0.9948298931121826 255.0 8.0 1.0 1.0
0.66632193 -2.3858409 -1.8391706 0.10135295987129211 0.05396675318479538 0.9933857917785645 253.0 8.0 1.0 1.0
0.75214416 -2.5649879 -1.8615578 0.15334421396255493 0.06819596886634827 0.9858168959617615 241.0 9.0 1.0 1.0
0.7234928 -2.5664692 -1.8569134 0.15308068692684174 0.0898263230919838 0.9841227531433105 247.0 9.0 1.0 1.0
0.8146354 -2.7604823 -1.8794043 0.13794124126434326 0.026632819324731827 0.9900822639465332 226.0 10.0 1.0 1.0
0.78938001 -2.7817974 -1.8880956 0.13626761734485626 0.026639046147465706 0.9903138279914856 235.0 10.0 1.0 1.0
0.88962436 -2.9937153 -1.9113328 0.10686188191175461 0.04226982593536377 0.9933750033378601 220.0 11.0 1.0 1.0
0.85544312 -2.9930928 -1.9049829 0.08277743309736252 0.017988350242376328 0.9964057207107544 223.0 11.0 1.0 1.0
0.96995842 -3.2437367 -1.9391327 0.0951014906167984 0.018866892904043198 0.9952887892723083 214.0 12.0 1.0 1.0
0.93116617 -3.2371089 -1.9290948 0.11140934377908707 0.03428301587700844 0.9931831359863281 211.0 12.0 1.0 1.0
1.062826 -3.5368454 -1.9786644 0.0777350664138794 0.0649842843413353 0.9948539733886719 196.0 13.0 1.0 1.0
1.022822 -3.5376873 -1.9728987 0.11212655901908875 0.069191575050354 0.9912821054458618 187.0 13.0 1.0 1.0
1.166267 -3.8646135 -2.0197415 0.14679957926273346 0.09325676411390305 0.9847604036331177 172.0 14.0 1.0 1.0
1.1287643 -3.8869772 -2.0250206 0.13844633102416992 0.019877538084983826 0.9901704788208008 181.0 14.0 1.0 1.0
1.2969124 -4.2793856 -2.0853248 0.09239400178194046 0.04821472615003586 0.9945545196533203 151.0 15.0 1.0 1.0
1.243933 -4.264967 -2.071672 0.09796637296676636 0.0417349748313427 0.9943141937255859 127.0 15.0 1.0 1.0
2.3498309 -4.381402 -2.1623011 0.13395391404628754 0.06883013248443604 0.9885942935943604 109.0 16.0 1.0 1.0
2.3072555 -4.412333 -2.1653862 0.08837179094552994 0.04232330992817879 0.9951880574226379 103.0 16.0 1.0 1.0
2.640451 -4.9342227 -2.2554493 0.13538022339344025 0.022559434175491333 0.9905368685722351 67.0 17.0 1.0 1.0
2.5749319 -4.9353676 -2.2433496 0.13486115634441376 0.08245047181844711 0.9874280691146851 43.0 17.0 1.0 1.0
2.9752004 -5.5745716 -2.3503327 0.15821880102157593 0.09883479028940201 0.9824451804161072 34.0 18.0 1.0 1.0
2.9114993 -5.5955191 -2.3460047 0.11890726536512375 0.01617523282766342 0.9927735924720764 34.0 18.0 1.0 1.0
3.4699571 -6.5161176 -2.523654 0.12185066193342209 0.07615070790052414 0.989622950553894 36.0 19.0 1.0 1.0
3.4015632 -6.5521727 -2.5234909 0.11460775136947632 0.05569583922624588 0.9918482899665833 36.0 19.0 1.0 1.0
4.1277084 -7.765449 -2.748956 0.13270451128482819 0.10866712033748627 0.9851807355880737 42.0 20.0 1.0 1.0
4.0356526 -7.7879944 -2.7415943 0.06331385672092438 0.0642094537615776 0.9959259033203125 44.0 20.0 1.0 1.0
4.397387 -8.2886839 -2.6649311 0.14935389161109924 -0.27858638763427734 0.9487270712852478 34.0 21.0 1.0 1.0
4.4023371 -8.5120411 -2.721607 0.044915635138750076 -0.651641845703125 0.7571958303451538 70.0 21.0 1.0 1.0
9.821312 -18.620766 -3.674212 -0.05519980192184448 -0.9949248433113098 0.08412741869688034 16.0 25.0 1.0 5.0
9.5627365 -18.600052 -3.6496615 -0.009892173111438751 -0.9985976219177246 0.052009161561727524 20.0 25.0 1.0 5.0
9.801549 -18.596525 -3.1109874 -0.03716636821627617 -0.9944937229156494 0.09798376262187958 14.0 26.0 1.0 5.0
9.5719442 -18.631367 -3.0993881 -0.020197466015815735 -0.996052086353302 0.08644231408834457 17.0 26.0 1.0 5.0
4.7149506 -8.958643 -1.2331313 -0.02702043391764164 -0.9769983291625977 0.21152807772159576 25.0 27.0 1.0 1.0
4.7260814 -9.2124443 -1.2610114 0.011215729638934135 -0.9966554045677185 0.08094573020935059 25.0 27.0 1.0 1.0
9.861783 -18.74543 -2.0322139 0.0439433827996254 -0.9770501852035522 0.20842735469341278 16.0 28.0 1.0 5.0
9.6031933 -18.727278 -2.018743 -0.02491583488881588 -0.9780485033988953 0.20688246190547943 16.0 28.0 1.0 5.0
9.8735924 -18.781296 -1.4876647 -0.012462607584893703 -0.9985321760177612 -0.05270836502313614 10.0 29.0 1.0 5.0
9.6327295 -18.798489 -1.4804715 -0.08208562433719635 -0.9739510416984558 0.21137917041778564 15.0 29.0 1.0 5.0
4.7685876 -9.0761032 -0.45497003 -0.02707216516137123 -0.9566486477851868 -0.28998368978500366 29.0 30.0 1.0 1.0
4.7662563 -9.3069344 -0.46382892 -0.04723084717988968 -0.9065079689025879 -0.41953855752944946 27.0 30.0 1.0 1.0
3.454596 -11.126937 0.083385751 -0.13942484557628632 -0.0981384813785553 -0.9853575825691223 50.0 32.0 1.0 1.0
3.2955015 -11.020725 0.082633965 -0.09283196926116943 -0.029983485117554665 -0.9952301979064941 48.0 32.0 1.0 1.0
2.8559802 -9.2094126 0.31495494 -0.20848651230335236 -0.03882147744297981 -0.9772544503211975 41.0 33.0 1.0 1.0
2.8029282 -9.3843746 0.32012168 -0.17509333789348602 0.024651477113366127 -0.9842431545257568 41.0 33.0 1.0 1.0
2.5040116 -8.0735779 0.49214336 -0.11179538816213608 -0.020566536113619804 -0.9935182929039001 38.0 34.0 1.0 1.0
2.4319494 -8.1414394 0.49489644 -0.09336277842521667 -0.003955270629376173 -0.9956243634223938 37.0 34.0 1.0 1.0
2.2339671 -7.206522 0.63290727 -0.10045918077230453 -0.008133158087730408 -0.9949079751968384 55.0 35.0 1.0 1.0
2.1515706 -7.2065992 0.63108981 -0.05872226506471634 -0.0018951192032545805 -0.9982725977897644 37.0 35.0 1.0 1.0
2.0274293 -6.5475497 0.75198066 -0.11873933672904968 -0.08699171245098114 -0.9891073703765869 148.0 36.0 1.0 1.0
1.9565177 -6.5607915 0.75127661 -0.10901305079460144 -0.0955045223236084 -0.9894418120384216 154.0 36.0 1.0 1.0
1.818673 -5.8800449 0.83631003 -0.11566916853189468 -0.02896842174232006 -0.992865264415741 130.0 37.0 1.0 1.0
1.7660993 -5.929143 0.84075969 -0.17345066368579865 -0.010467011481523514 -0.9847869277000427 163.0 37.0 1.0 1.0
1.6702641 -5.4096122 0.91762531 -0.11468767374753952 -0.11288480460643768 -0.9869669079780579 187.0 38.0 1.0 1.0
1.610185 -5.4154387 0.91584611 -0.11524996161460876 -0.055122777819633484 -0.9918058514595032 169.0 38.0 1.0 1.0
1.5394145 -4.9914179 0.9852547 -0.4724584221839905 -0.06325142830610275 -0.8790803551673889 184.0 39.0 1.0 1.0
1.5027889 -5.059998 0.99574614 -0.4429068863391876 -0.05438246577978134 -0.894916832447052 217.0 39.0 1.0 1.0
1.4173368 -4.6036334 1.0385547 -0.09136892855167389 -0.040050264447927475 -0.9950114488601685 205.0 40.0 1.0 1.0
1.3813336 -4.659441 1.0479332 -0.12604005634784698 0.0014634501421824098 -0.9920240044593811 226.0 40.0 1.0 1.0
1.315703 -4.2836323 1.0891757 -0.1467585265636444 -0.08417084068059921 -0.9855846762657166 220.0 41.0 1.0 1.0
1.2796447 -4.326973 1.0968336 -0.13516680896282196 -0.06320421397686005 -0.9888048768043518 250.0 41.0 1.0 1.0
1.2396793 -4.0456109 1.1456553 -0.12726709246635437 -0.10411402583122253 -0.9863890409469604 255.0 42.0 1.0 1.0
1.1983808 -4.0620537 1.1468023 -0.12769067287445068 -0.06514757126569748 -0.9896721243858337 255.0 42.0 1.0 1.0
1.1475185 -3.7561226 1.1756183 -0.14344502985477448 -0.042023658752441406 -0.9887655973434448 229.0 43.0 1.0 1.0
1.1168269 -3.7973213 1.1848816 -0.12796242535114288 0.001711367629468441 -0.9917774796485901 255.0 43.0 1.0 1.0
1.0895513 -3.5769951 1.2279155 -0.41656073927879333 0.055651504546403885 -0.9074028730392456 238.0 44.0 1.0 1.0
1.0649294 -3.6319451 1.2429701 -0.3891094923019409 0.007032043766230345 -0.9211646914482117 255.0 44.0 1.0 1.0
1.007691 -3.3182781 1.2423819 0.053907256573438644 -0.050090864300727844 -0.997288703918457 229.0 45.0 1.0 1.0
0.98139662 -3.3575392 1.2532508 0.12834729254245758 -0.18016457557678223 -0.9752269983291626 244.0 45.0 1.0 1.0
0.95772558 -3.1651535 1.2849926 -0.17669348418712616 0.038545530289411545 -0.9835108518600464 255.0 46.0 1.0 1.0
0.92247927 -3.1678264 1.2821772 -0.07460208982229233 0.025920772925019264 -0.9968764781951904 255.0 46.0 1.0 1.0
0.90742034 -3.0078926 1.3199264 -0.09766991436481476 -0.11701521277427673 -0.9883158206939697 255.0 47.0 1.0 1.0
0.88003421 -3.0313709 1.3261968 -0.04848986864089966 -0.804473876953125 -0.5920053720474243 255.0 47.0 1.0 1.0
1.3902322 -2.6066735 1.3387457 -0.15394052863121033 -0.016719844192266464 -0.987938642501831 255.0 48.0 1.0 1.0
1.3645835 -2.6242952 1.3404609 -0.15292394161224365 -0.11592920124530792 -0.9814146161079407 255.0 48.0 1.0 1.0
1.3207394 -2.4700067 1.364056 -0.2156112939119339 -0.05486532300710678 -0.9749367237091064 253.0 49.0 1.0 1.0
1.2965076 -2.4868639 1.3658681 -0.13391180336475372 -0.045202240347862244 -0.9899618029594421 255.0 49.0 1.0 1.0
1.263344 -2.3555791 1.3957675 -0.13234072923660278 -0.04055427014827728 -0.9903743267059326 255.0 50.0 1.0 1.0
1.2353557 -2.3623714 1.3921248 -0.1306096911430359 -0.040563665330410004 -0.9906036853790283 255.0 50.0 1.0 1.0
1.2014433 -2.2316158 1.4165288 -0.47740426659584045 -0.00511682266369462 -0.8786689043045044 255.0 51.0 1.0 1.0
1.179675 -2.2471383 1.4185355 -0.2405281364917755 -0.08141755312681198 -0.9672214984893799 255.0 51.0 1.0 1.0
1.1504805 -2.129668 1.445816 -0.007499434985220432 -0.11434151232242584 -0.9934131503105164 255.0 52.0 1.0 1.0
1.1297604 -2.144608 1.4479197 -0.09333071857690811 -0.17666222155094147 -0.9798367023468018 250.0 52.0 1.0 1.0
1.0950316 -2.0184758 1.4642627 -0.11991949379444122 -0.17210832238197327 -0.9777515530586243 255.0 53.0 1.0 1.0
1.0849397 -2.0506618 1.4793638 -0.13811643421649933 -0.17169788479804993 -0.9754197001457214 255.0 53.0 1.0 1.0
1.0319226 -1.8926182 1.4670293 -0.07820132374763489 0.02924688160419464 -0.9965084791183472 255.0 54.0 1.0 1.0
1.0151997 -1.9091287 1.4715767 -0.1481378972530365 -0.04159746691584587 -0.9880914688110352 255.0 54.0 1.0 1.0
0.98441637 -1.7964038 1.4873986 -0.16400665044784546 -0.03694013133645058 -0.9857673645019531 255.0 55.0 1.0 1.0
0.96712124 -1.8094378 1.4897934 -0.1401999294757843 -0.03707733750343323 -0.9894288182258606 255.0 55.0 1.0 1.0
0.93577778 -1.6969904 1.5014652 -0.09473340213298798 -0.7008570432662964 -0.7069829702377319 253.0 56.0 1.0 1.0
0.92099965 -1.7122331 1.506407 -0.20793412625789642 -0.6931177377700806 -0.6901820302009583 255.0 56.0 1.0 1.0
0.91417205 -1.6459948 1.5574541 0.07630281895399094 -0.9433198571205139 -0.3229944109916687 255.0 57.0 1.0 1.0
0.91311681 -1.6852345 1.5855409 -0.11136467009782791 -0.8484956622123718 -0.5173519253730774 255.0 57.0 1.0 1.0
0.88672388 -1.5846028 1.6050071 -0.14642487466335297 -0.036872945725917816 -0.9885343313217163 255.0 58.0 1.0 1.0
0.87012261 -1.5937698 1.6050465 -0.14642487466335297 -0.036872945725917816 -0.9885343313217163 255.0 58.0 1.0 1.0
0.8452177 -1.4973835 1.6273868 -0.14022377133369446 -0.018436260521411896 -0.9899481534957886 255.0 59.0 1.0 1.0
0.82250625 -1.4934082 1.6136746 -0.14022377133369446 -0.018436260521411896 -0.9899481534957886 255.0 59.0 1.0 1.0
0.79785913 -1.3990942 1.6355667 -0.14722567796707153 -0.031931113451719284 -0.9885873198509216 255.0 60.0 1.0 1.0
0.7791 -1.3999906 1.6270497 -0.09287398308515549 -0.03214337304234505 -0.9951589107513428 255.0 60.0 1.0 1.0
0.7559824 -1.3095663 1.6518435 -0.16302898526191711 -0.0733000636100769 -0.9838945865631104 255.0 61.0 1.0 1.0
0.74359792 -1.3197281 1.6548271 -0.16302898526191711 -0.0733000636100769 -0.9838945865631104 255.0 61.0 1.0 1.0
0.7064628 -1.207613 1.6501199 -0.09692757576704025 -0.03622884675860405 -0.994631826877594 255.0 62.0 1.0 1.0
0.69381946 -1.2149116 1.6501498 -0.0965740829706192 -0.09264832735061646 -0.991004467010498 255.0 62.0 1.0 1.0
0.67467701 -1.1344038 1.6887739 -0.18093273043632507 -0.11549631506204605 -0.9766902923583984 255.0 63.0 1.0 1.0
0.65908039 -1.1349926 1.6793447 -0.18206438422203064 -0.03095919080078602 -0.9827991127967834 255.0 63.0 1.0 1.0
9.8248682 -18.662012 -2.5716059 -0.02702043391764164 -0.9769983291625977 0.21152807772159576 8.0 27.0 2.0 1.0
0.2754173 -1.250282 -1.6800153 0.13789065182209015 0.053528644144535065 0.9889999032020569 255.0 0.0 1.0 1.0
0.28900841 -1.249632 -1.683233 0.13789065182209015 0.053528644144535065 0.9889999032020569 255.0 0.0 1.0 1.0
0.31400543 -1.3783451 -1.7070192 0.14068898558616638 0.03166723623871803 0.9895472526550293 255.0 1.0 1.0 1.0
0.32779336 -1.3724525 -1.7039688 0.15709403157234192 0.031588226556777954 0.9870783090591431 255.0 1.0 1.0 1.0
0.34852844 -1.490557 -1.7119567 0.12398770451545715 0.04849095270037651 0.9910982251167297 255.0 2.0 1.0 1.0
0.36535534 -1.4919397 -1.7179673 0.15429435670375824 0.04828282818198204 0.9868444204330444 255.0 2.0 1.0 1.0
0.390062 -1.630144 -1.7409035 0.14057108759880066 0.040557861328125 0.9892394542694092 255.0 3.0 1.0 1.0
0.40572602 -1.6205432 -1.7351726 0.10823079943656921 0.007726551033556461 0.9940957427024841 255.0 3.0 1.0 1.0
0.43035182 -1.7652838 -1.7587993 0.13926741480827332 0.05455534905195236 0.9887508749961853 255.0 4.0 1.0 1.0
0.45091441 -1.7689658 -1.7672035 0.13910964131355286 0.07234503328800201 0.9876308441162109 255.0 4.0 1.0 1.0
0.46966848 -1.8959979 -1.7654694 0.08969182521104813 0.03195422515273094 0.9954567551612854 250.0 5.0 1.0 1.0
0.48797217 -1.885184 -1.7601442 0.09108889102935791 0.057884760200977325 0.9941589832305908 241.0 5.0 1.0 1.0
0.51607358 -2.0538561 -1.7902838 0.1410464197397232 0.05641503259539604 0.9883942008018494 244.0 6.0 1.0 1.0
0.53829521 -2.051234 -1.7929225 0.15203988552093506 0.05941670015454292 0.9865868091583252 253.0 6.0 1.0 1.0
0.56434232 -2.2195952 -1.8133118 0.11745288968086243 0.02965383045375347 0.9926356673240662 244.0 7.0 1.0 1.0
0.58752054 -2.2135072 -1.8133678 0.11083713173866272 0.02967652678489685 0.9933953881263733 247.0 7.0 1.0 1.0
0.61149317 -2.3807375 -1.8247097 0.12597376108169556 0.07011190801858902 0.989552915096283 244.0 8.0 1.0 1.0
0.64052147 -2.389641 -1.8367109 0.12589263916015625 0.0787196233868599 0.988915741443634 250.0 8.0 1.0 1.0
0.6696707 -2.5811694 -1.8567704 0.12390925735235214 -0.009921139106154442 0.9922440052032471 247.0 9.0 1.0 1.0
0.69834763 -2.5802886 -1.8614146 0.12390925735235214 -0.009921139106154442 0.9922440052032471 247.0 9.0 1.0 1.0
