ply
format ascii 1.0
element vertex 418
property float x
property float y
property float z
property float nx
property float ny
property float nz
property float intensity
property float ring
property float return
property float label
end_header
-0.97435796 0.43180028 -0.072328039 0.011355850845575333 0.9950099587440491 -0.09912753850221634 255.0 29.0 1.0 1.0
-0.98192114 0.44795394 -0.045636062 0.0001498508354416117 0.9989721775054932 -0.045327410101890564 255.0 30.0 1.0 1.0
-0.96461594 0.42794758 -0.04458528 -0.01030911784619093 0.9996865391731262 -0.022818446159362793 255.0 30.0 1.0 1.0
-0.97173977 0.44337192 -0.017955724 -0.009220930747687817 0.9968418478965759 -0.07887529581785202 255.0 31.0 1.0 1.0
-0.9543702 0.42346376 -0.017515561 -0.009220930747687817 0.9968418478965759 -0.07887529581785202 255.0 31.0 1.0 1.0
-0.97040343 0.67917496 0.010066628 0.027437850832939148 0.9974304437637329 -0.06617992371320724 255.0 32.0 1.0 1.0
-0.98075181 0.67122871 0.01011806 0.027437850832939148 0.9974304437637329 -0.06617992371320724 255.0 32.0 1.0 1.0
-0.95652473 0.67003822 0.039676487 0.013831859454512596 0.9998998641967773 0.002975462470203638 255.0 33.0 1.0 1.0
-0.95357311 0.6532144 0.039297234 0.013831859454512596 0.9998998641967773 0.002975462470203638 255.0 33.0 1.0 1.0
-0.93889683 0.65801907 0.068232469 0.013805009424686432 0.9979589581489563 -0.06234859302639961 255.0 34.0 1.0 1.0
-0.96220243 0.65941727 0.069426373 0.013805009424686432 0.9979589581489563 -0.06234859302639961 255.0 34.0 1.0 1.0
-0.95022023 0.6659959 0.098796315 0.02335967682301998 0.9991553425788879 -0.033808983862400055 255.0 35.0 1.0 1.0
-0.97686774 0.66950482 0.10083616 0.02335967682301998 0.9991553425788879 -0.033808983862400055 255.0 35.0 1.0 1.0
-0.95737004 0.67155355 0.12973228 0.019832637161016464 0.9995337724685669 -0.023214126005768776 255.0 36.0 1.0 1.0
-0.96105349 0.65924174 0.12931377 0.019832637161016464 0.9995337724685669 -0.023214126005768776 255.0 36.0 1.0 1.0
-0.94108647 0.66070539 0.15763526 0.020385397598147392 0.9992751479148865 -0.032151270657777786 255.0 37.0 1.0 1.0
-0.95774698 0.65752947 0.15927705 0.020385397598147392 0.9992751479148865 -0.032151270657777786 255.0 37.0 1.0 1.0
-0.94358051 0.66324914 0.18831158 0.020358946174383163 0.9979784488677979 -0.060203876346349716 255.0 38.0 1.0 1.0
-0.95371395 0.65556043 0.18897332 0.020358946174383163 0.9979784488677979 -0.060203876346349716 255.0 38.0 1.0 1.0
-0.94537663 0.66530836 0.21941061 0.019132215529680252 0.9982179403305054 -0.05652347579598427 255.0 39.0 1.0 1.0
-0.92959517 0.63979387 0.21422586 0.019132215529680252 0.9982179403305054 -0.05652347579598427 255.0 39.0 1.0 1.0
-0.95615816 0.67343974 0.25350687 0.013452631421387196 0.999583899974823 -0.02551507204771042 255.0 40.0 1.0 1.0
-0.94380778 0.65009886 0.24845622 0.013452631421387196 0.999583899974823 -0.02551507204771042 255.0 40.0 1.0 1.0
-0.91498899 0.64552277 0.2734848 0.014227856881916523 0.9996321797370911 -0.0230912733823061 255.0 41.0 1.0 1.0
-0.93448621 0.64471489 0.27729085 0.014227856881916523 0.9996321797370911 -0.0230912733823061 255.0 41.0 1.0 1.0
-0.93996298 0.66414678 0.312949 0.010412679053843021 0.9982260465621948 -0.0586213581264019 255.0 42.0 1.0 1.0
-0.93413496 0.64549685 0.308779 0.028888152912259102 0.9978635311126709 -0.05860006436705589 255.0 42.0 1.0 1.0
-0.94480795 0.66886383 0.34782946 0.01093944814056158 0.9982783794403076 -0.05762619897723198 255.0 43.0 1.0 1.0
-0.93598008 0.6480388 0.34210405 0.010932854376733303 0.9976766705513 -0.06724292039871216 255.0 43.0 1.0 1.0
-0.92086291 0.65322018 0.37206879 0.015425466932356358 0.997352659702301 -0.07106124609708786 255.0 44.0 1.0 1.0
-0.93388271 0.64785981 0.37458801 0.02348577044904232 0.9972803592681885 -0.0698598101735115 255.0 44.0 1.0 1.0
-0.93641245 0.66552085 0.4128938 0.015431334264576435 0.9977320432662964 -0.06551797688007355 255.0 45.0 1.0 1.0
-0.93402982 0.64923495 0.40886021 -0.0039934455417096615 0.9983070492744446 -0.0580257847905159 255.0 45.0 1.0 1.0
-0.93856162 0.66859275 0.44912875 0.0010296028340235353 0.9984704256057739 -0.05527761951088905 255.0 46.0 1.0 1.0
-0.92100555 0.64169979 0.43754172 -0.06332991272211075 0.9969258308410645 -0.04613334313035011 255.0 46.0 1.0 1.0
-0.92169154 0.6578843 0.47709635 0.0010296028340235353 0.9984704256057739 -0.05527761951088905 255.0 47.0 1.0 1.0
-0.92245901 0.64397508 0.47401285 -0.06326668709516525 0.9959304928779602 -0.0641866996884346 255.0 47.0 1.0 1.0
-0.93993038 0.42304495 0.46939123 -0.036265697330236435 0.9874824285507202 -0.15350322425365448 255.0 48.0 1.0 1.0
-0.93761325 0.41026121 0.46609724 -0.034356046468019485 0.987258791923523 -0.15536989271640778 255.0 48.0 1.0 1.0
-0.91828465 0.41223988 0.4925195 -0.038570135831832886 0.9944226145744324 -0.09816338866949081 247.0 49.0 1.0 1.0
-0.92912209 0.40546069 0.4960486 0.008246690034866333 0.9951292872428894 -0.09823314845561981 253.0 49.0 1.0 1.0
-0.91550732 0.40971732 0.52613425 -0.030856532976031303 0.9921882748603821 -0.12087354063987732 247.0 50.0 1.0 1.0
-0.90997404 0.39587224 0.52058256 -0.030856532976031303 0.9921882748603821 -0.12087354063987732 244.0 50.0 1.0 1.0
-0.89564973 0.39942527 0.55053443 -0.031010465696454048 0.9971379041671753 -0.06895173341035843 229.0 51.0 1.0 1.0
-0.91898006 0.39831677 0.56228858 -0.031010465696454048 0.9971379041671753 -0.06895173341035843 247.0 51.0 1.0 1.0
-0.90328771 0.40137583 0.59294677 -0.017173713073134422 0.9969793558120728 -0.07574541121721268 235.0 52.0 1.0 1.0
-0.90426749 0.39053053 0.59090745 -0.00785913597792387 0.9963498115539551 -0.08500129729509354 232.0 52.0 1.0 1.0
-0.89088565 0.39390844 0.6237368 -0.017215188592672348 0.9993870854377747 -0.03048103302717209 229.0 53.0 1.0 1.0
-0.88254857 0.37924463 0.61513156 -0.017215188592672348 0.9993870854377747 -0.03048103302717209 229.0 53.0 1.0 1.0
-0.89537334 0.39372119 0.66840911 -0.04326116666197777 0.997357189655304 -0.058369699865579605 232.0 54.0 1.0 1.0
-0.89030534 0.38043264 0.66165954 -0.04326116666197777 0.997357189655304 -0.058369699865579605 226.0 54.0 1.0 1.0
-0.90374261 0.39521217 0.71914226 -0.029295451939105988 0.9970167279243469 -0.07141158729791641 238.0 55.0 1.0 1.0
-0.9018532 0.38319618 0.71444857 -0.029295451939105988 0.9970167279243469 -0.07141158729791641 238.0 55.0 1.0 1.0
-0.88663858 0.38508075 0.75200289 -0.01956973411142826 0.9992915987968445 -0.032143883407115936 220.0 56.0 1.0 1.0
-0.87895262 0.37087026 0.74219984 -0.01956973411142826 0.9992915987968445 -0.032143883407115936 220.0 56.0 1.0 1.0
-0.89067382 0.38378102 0.80550855 -0.02640014886856079 0.99908846616745 -0.03354472666978836 226.0 57.0 1.0 1.0
-0.88893682 0.37205401 0.80041575 -0.02640014886856079 0.99908846616745 -0.03354472666978836 223.0 57.0 1.0 1.0
-0.8807795 0.37653562 0.85014242 0.00028684380231425166 0.999987781047821 0.004937429912388325 223.0 58.0 1.0 1.0
-0.88464862 0.36728096 0.85015857 0.00028684380231425166 0.999987781047821 0.004937429912388325 229.0 58.0 1.0 1.0
-0.88698071 0.37544495 0.91536176 -0.040003810077905655 0.9988502264022827 0.026419097557663918 235.0 59.0 1.0 1.0
-0.87473238 0.35953161 0.89885014 0.031168922781944275 0.999431848526001 -0.012830049730837345 223.0 59.0 1.0 1.0
-0.89451832 0.37396601 0.98871344 -0.024564310908317566 0.9995645880699158 -0.016342440620064735 250.0 60.0 1.0 1.0
-0.89576048 0.36351642 0.98587459 0.0008086343877948821 0.9999930262565613 -0.0036577091086655855 247.0 60.0 1.0 1.0
-0.88239467 0.36363068 1.0470905 0.015867847949266434 0.9995999336242676 -0.023415274918079376 250.0 61.0 1.0 1.0
-0.88612545 0.35435852 1.0471066 -0.007068025413900614 0.9990742206573486 -0.04243548586964607 255.0 61.0 1.0 1.0
-0.87794065 0.35604668 1.1223968 -0.03737930953502655 0.9914957880973816 -0.12465500831604004 250.0 62.0 1.0 1.0
-0.88880002 0.34964547 1.1315808 -0.03737930953502655 0.9914957880973816 -0.12465500831604004 255.0 62.0 1.0 1.0
-0.89059389 0.3539274 1.2319289 -0.03289606422185898 0.9959357380867004 -0.08384432643651962 255.0 63.0 1.0 1.0
-0.88504565 0.34104732 1.2193183 -0.03289606422185898 0.9959357380867004 -0.08384432643651962 255.0 63.0 1.0 1.0
-0.36946243 0.29840407 -0.62339222 0.11373664438724518 0.783996045589447 0.6102575659751892 244.0 0.0 1.0 1.0
-0.37446511 0.29601747 -0.62656915 0.11373664438724518 0.783996045589447 0.6102575659751892 241.0 0.0 1.0 1.0
-0.39098695 0.31144854 -0.6036126 0.13206052780151367 0.04026852175593376 0.9904233813285828 229.0 1.0 1.0 1.0
-0.40227339 0.31358615 -0.61593974 0.19081944227218628 0.023747876286506653 0.9813379049301147 232.0 1.0 1.0 1.0
-0.42297554 0.33319187 -0.60211432 0.22792813181877136 0.06950093060731888 0.971194326877594 229.0 2.0 1.0 1.0
-0.43488663 0.33523163 -0.61404461 0.22738738358020782 -0.09770820289850235 0.9688901305198669 241.0 2.0 1.0 1.0
-0.46376011 0.3616229 -0.61065292 0.15771295130252838 -0.07884468138217926 0.984332263469696 232.0 3.0 1.0 1.0
-0.46089754 0.35171846 -0.60199016 0.27283918857574463 -0.07681462168693542 0.9589880704879761 226.0 3.0 1.0 1.0
-0.48191071 0.37284532 -0.58952796 0.20813044905662537 -0.034872908145189285 0.9774792194366455 226.0 4.0 1.0 1.0
-0.49954036 0.37815404 -0.60622573 0.20813044905662537 -0.034872908145189285 0.9774792194366455 235.0 4.0 1.0 1.0
-0.52963728 0.40662357 -0.60321504 0.21333466470241547 -0.027735112234950066 0.9765853881835938 241.0 5.0 1.0 1.0
-0.52674007 0.39572662 -0.59515011 0.208176851272583 -0.02776668220758438 0.9776970148086548 235.0 5.0 1.0 1.0
-0.56842202 0.43355042 -0.60398525 0.21144120395183563 -0.13575032353401184 0.9679176211357117 247.0 6.0 1.0 1.0
-0.56802714 0.423933 -0.59880406 0.21144120395183563 -0.13575032353401184 0.9679176211357117 241.0 6.0 1.0 1.0
-0.57975304 0.43985051 -0.57569963 0.07230739295482635 -0.11966285109519958 0.9901779890060425 232.0 7.0 1.0 1.0
-0.60196108 0.44680715 -0.59308237 0.09654496610164642 -0.14364837110042572 0.9849081635475159 244.0 7.0 1.0 1.0
-0.62300986 0.47041729 -0.578987 0.09691278636455536 -0.11470918357372284 0.9886605143547058 238.0 8.0 1.0 1.0
-0.62272698 0.460062 -0.57420194 0.09691278636455536 -0.11470918357372284 0.9886605143547058 241.0 8.0 1.0 1.0
-0.67726451 0.50892895 -0.58928216 0.13748107850551605 -0.01918693445622921 0.9903185367584229 255.0 9.0 1.0 1.0
-0.68519866 0.50375134 -0.59155524 0.13748107850551605 -0.01918693445622921 0.9903185367584229 255.0 9.0 1.0 1.0
-0.68918985 0.51624978 -0.56148982 0.1615733653306961 -0.038655709475278854 0.986103355884552 247.0 10.0 1.0 1.0
-0.71077466 0.52086067 -0.5746032 0.11716046184301376 0.006628113333135843 0.993090808391571 255.0 10.0 1.0 1.0
-0.76867336 0.57360953 -0.58611608 0.12488898634910583 0.0005204146727919579 0.9921706318855286 255.0 11.0 1.0 1.0
-0.76636004 0.55950683 -0.57983392 0.10597454011440277 0.0005215676501393318 0.9943686723709106 255.0 11.0 1.0 1.0
-0.79408777 0.59066653 -0.56589991 0.18299385905265808 0.061300117522478104 0.9812010526657104 255.0 12.0 1.0 1.0
-0.80584222 0.58639807 -0.56986028 0.18299385905265808 0.061300117522478104 0.9812010526657104 255.0 12.0 1.0 1.0
-0.83570963 0.62004369 -0.55651289 0.11124517768621445 0.01396170910447836 0.9936949014663696 255.0 13.0 1.0 1.0
-0.84500742 0.61332786 -0.55838478 0.11124517768621445 0.01396170910447836 0.9936949014663696 255.0 13.0 1.0 1.0
-0.8974669 0.66437942 -0.55758756 0.10093185305595398 -0.04413074627518654 0.9939141273498535 255.0 14.0 1.0 1.0
-0.89857072 0.65075678 -0.55398953 0.10093185305595398 -0.04413074627518654 0.9939141273498535 255.0 14.0 1.0 1.0
-0.95105475 0.70250338 -0.55020446 0.42626523971557617 0.40738430619239807 0.8076731562614441 255.0 15.0 1.0 1.0
-0.95541298 0.69038725 -0.54849446 0.017167560756206512 0.17634810507297516 0.9841781258583069 255.0 15.0 1.0 1.0
-1.0036399 0.47062305 -0.47991094 -0.014192347414791584 0.9995089769363403 0.02793492190539837 255.0 16.0 1.0 1.0
-0.98846483 0.45097294 -0.47034174 -0.014192347414791584 0.9995089769363403 0.02793492190539837 255.0 16.0 1.0 1.0
-1.001145 0.47079679 -0.44363797 -0.0026989111211150885 0.9995629787445068 -0.02943778969347477 255.0 17.0 1.0 1.0
-0.98912942 0.45258656 -0.43616241 -0.0026989111211150885 0.9995629787445068 -0.02943778969347477 255.0 17.0 1.0 1.0
-0.98052174 0.46264908 -0.40102628 -0.012369447387754917 0.9995176792144775 -0.02848622016608715 255.0 18.0 1.0 1.0
-0.98530543 0.45235622 -0.40100825 -0.012369447387754917 0.9995176792144775 -0.02848622016608715 255.0 18.0 1.0 1.0
-1.0065157 0.47622433 -0.37831596 -0.012360533699393272 0.9987974166870117 -0.04744328185915947 255.0 19.0 1.0 1.0
-0.97702777 0.4498623 -0.36540201 -0.008241255767643452 0.9990267157554626 -0.0433320626616478 255.0 19.0 1.0 1.0
-0.99408901 0.47147954 -0.34156162 -0.00823888648301363 0.9987395405769348 -0.04951219633221626 255.0 20.0 1.0 1.0
-0.99202442 0.45785064 -0.33916572 -0.019011585041880608 0.9980019330978394 -0.06025441363453865 255.0 20.0 1.0 1.0
-0.97013116 0.46124047 -0.30278164 -0.019011585041880608 0.9980019330978394 -0.06025441363453865 255.0 21.0 1.0 1.0
-0.97839427 0.45266828 -0.30385193 -0.019040634855628014 0.9995269179344177 -0.024154143407940865 255.0 21.0 1.0 1.0
-0.98359615 0.46872881 -0.2763707 0.009518686681985855 0.998470664024353 -0.05445832759141922 255.0 22.0 1.0 1.0
-0.98844147 0.45840284 -0.27635258 0.009518686681985855 0.998470664024353 -0.05445832759141922 255.0 22.0 1.0 1.0
-0.98237258 0.46904099 -0.24622165 -0.015100752003490925 0.9996278882026672 -0.02271581068634987 255.0 23.0 1.0 1.0
-0.96244478 0.44724968 -0.24000563 -0.015100752003490925 0.9996278882026672 -0.02271581068634987 255.0 23.0 1.0 1.0
-0.9946273 0.47556609 -0.21956183 0.0001251023932127282 0.9994617104530334 -0.032806601375341415 255.0 24.0 1.0 1.0
-0.98175234 0.45686978 -0.21562229 -0.015857771039009094 0.999779999256134 -0.013722438365221024 255.0 24.0 1.0 1.0
-0.97064626 0.46501613 -0.18544799 -0.001498825615271926 0.9993488788604736 -0.03605072572827339 255.0 25.0 1.0 1.0
-0.96830392 0.45150226 -0.18406555 -0.001498825615271926 0.9993488788604736 -0.03605072572827339 255.0 25.0 1.0 1.0
-0.98511583 0.47261208 -0.15929888 -0.001498763682320714 0.9993076324462891 -0.037174999713897705 255.0 26.0 1.0 1.0
-0.96488428 0.45057651 -0.15522 -0.014113779179751873 0.9980255365371704 -0.06120317056775093 255.0 26.0 1.0 1.0
-0.98472226 0.47289625 -0.13082276 -0.013712613843381405 0.9991000890731812 -0.040138859301805496 255.0 27.0 1.0 1.0
-0.97161108 0.45416963 -0.12841129 -0.013712613843381405 0.9991000890731812 -0.040138859301805496 255.0 27.0 1.0 1.0
-0.96563566 0.46442771 -0.10046691 -0.013701377436518669 0.9982813596725464 -0.05697781592607498 255.0 28.0 1.0 1.0
-0.97043437 0.45428848 -0.10044909 -0.013701377436518669 0.9982813596725464 -0.05697781592607498 255.0 28.0 1.0 1.0
-0.96396291 0.46388108 -0.072679162 0.0019189961021766067 0.9967617988586426 -0.0803883746266365 255.0 29.0 1.0 1.0
-0.96875554 0.45375913 -0.07266137 0.0019189961021766067 0.9967617988586426 -0.0803883746266365 255.0 29.0 1.0 1.0
-0.96876216 0.46664864 -0.04552304 0.0019252242054790258 0.9999967813491821 0.001649553538300097 255.0 30.0 1.0 1.0
-0.96996301 0.45478335 -0.04533292 -0.005152915604412556 0.9989588260650635 -0.04532680660486221 255.0 30.0 1.0 1.0
-0.96588761 0.46531597 -0.018085137 -0.005150968208909035 0.9985812902450562 -0.052999671548604965 255.0 31.0 1.0 1.0
-0.9706946 0.4551729 -0.018067308 -0.013797251507639885 0.9967893362045288 -0.07887113839387894 255.0 31.0 1.0 1.0
-0.94955313 0.69459099 0.0099486448 0.012048526667058468 0.9977336525917053 -0.06620004028081894 255.0 32.0 1.0 1.0
-0.9502511 0.67995751 0.0099060684 0.027437850832939148 0.9974304437637329 -0.06617992371320724 255.0 32.0 1.0 1.0
-0.96170008 0.70403206 0.040418278 0.00812529493123293 0.999962568283081 0.002975648967549205 255.0 33.0 1.0 1.0
-0.94949061 0.67997295 0.039640591 0.013831859454512596 0.9998998641967773 0.002975462470203638 255.0 33.0 1.0 1.0
-0.94107938 0.68927777 0.069351181 0.008109520189464092 0.9980212450027466 -0.062352485954761505 255.0 34.0 1.0 1.0
-0.97746676 0.70028269 0.071483292 0.013805009424686432 0.9979589581489563 -0.06234859302639961 255.0 34.0 1.0 1.0
-0.94898707 0.69511646 0.10008714 0.026257572695612907 0.9993857145309448 -0.023210685700178146 255.0 35.0 1.0 1.0
-0.95295751 0.68281853 0.099770188 0.02335967682301998 0.9991553425788879 -0.033808983862400055 255.0 35.0 1.0 1.0
-0.91747773 0.67263383 0.12617077 0.026257572695612907 0.9993857145309448 -0.023210685700178146 255.0 36.0 1.0 1.0
-0.95355642 0.68380892 0.13013473 0.019832637161016464 0.9995337724685669 -0.023214126005768776 255.0 36.0 1.0 1.0
-0.95907575 0.70363998 0.16298588 0.00349696003831923 0.9994767308235168 -0.03215775638818741 255.0 37.0 1.0 1.0
-0.95348769 0.68432295 0.1608433 0.020385397598147392 0.9992751479148865 -0.032151270657777786 255.0 37.0 1.0 1.0
-0.93909222 0.68982446 0.19018245 0.019132215529680252 0.9982179403305054 -0.05652347579598427 255.0 38.0 1.0 1.0
-0.93662268 0.67304641 0.18827599 0.019132215529680252 0.9982179403305054 -0.05652347579598427 255.0 38.0 1.0 1.0
-0.93763059 0.68956888 0.22084236 0.013452631421387196 0.999583899974823 -0.02551507204771042 255.0 39.0 1.0 1.0
-0.94478387 0.67970777 0.22086175 0.019132215529680252 0.9982179403305054 -0.05652347579598427 255.0 39.0 1.0 1.0
-0.93875295 0.6909585 0.25260669 0.013452631421387196 0.999583899974823 -0.02551507204771042 255.0 40.0 1.0 1.0
-0.93956989 0.67652267 0.25093618 0.013452631421387196 0.999583899974823 -0.02551507204771042 255.0 40.0 1.0 1.0
-0.92950404 0.68522704 0.28195009 0.014227856881916523 0.9996321797370911 -0.0230912733823061 255.0 41.0 1.0 1.0
-0.93345696 0.67318082 0.28102273 0.014227856881916523 0.9996321797370911 -0.0230912733823061 255.0 41.0 1.0 1.0
-0.93212575 0.68822223 0.31498885 0.010412679053843021 0.9982260465621948 -0.0586213581264019 255.0 42.0 1.0 1.0
-0.94552737 0.68293244 0.31710267 0.010412679053843021 0.9982260465621948 -0.0586213581264019 255.0 42.0 1.0 1.0
-0.90599638 0.67025477 0.33858398 0.015425466932356358 0.997352659702301 -0.07106124609708786 255.0 43.0 1.0 1.0
-0.94090331 0.68091297 0.34894285 0.01093944814056158 0.9982783794403076 -0.05762619897723198 255.0 43.0 1.0 1.0
-0.93148518 0.69039345 0.38201338 0.015425466932356358 0.997352659702301 -0.07106124609708786 255.0 44.0 1.0 1.0
-0.92017448 0.66723114 0.3745335 0.015425466932356358 0.997352659702301 -0.07106124609708786 255.0 44.0 1.0 1.0
-0.92838615 0.68942362 0.41554114 -0.004333130549639463 0.9989405870437622 -0.04581418260931969 255.0 45.0 1.0 1.0
-0.92741477 0.6902793 0.45052493 0.0010296028340235353 0.9984704256057739 -0.05527761951088905 255.0 46.0 1.0 1.0
-0.93758863 0.68271387 0.45199487 0.0010296028340235353 0.9984704256057739 -0.05527761951088905 255.0 46.0 1.0 1.0
-0.92552811 0.69020402 0.48634976 0.0010296028340235353 0.9984704256057739 -0.05527761951088905 255.0 47.0 1.0 1.0
-0.92076236 0.67178684 0.48016393 0.0010296028340235353 0.9984704256057739 -0.05527761951088905 255.0 47.0 1.0 1.0
-0.94409066 0.44882903 0.47595581 -0.036482036113739014 0.9933730959892273 -0.108990877866745 255.0 48.0 1.0 1.0
-0.93549275 0.43281105 0.46935084 -0.036265697330236435 0.9874824285507202 -0.15350322425365448 255.0 48.0 1.0 1.0
-0.91926259 0.43594322 0.49773046 -0.0013658449752256274 0.9933524131774902 -0.11510475724935532 247.0 49.0 1.0 1.0
-0.93355256 0.43079123 0.5030151 -0.03950561210513115 0.9944769740104675 -0.09723538905382156 255.0 49.0 1.0 1.0
-0.91320318 0.43177551 0.52978987 -0.030410444363951683 0.9949031472206116 -0.096140556037426 247.0 50.0 1.0 1.0
-0.90477055 0.41627389 0.52238226 -0.030856532976031303 0.9921882748603821 -0.12087354063987732 238.0 50.0 1.0 1.0
-0.90610468 0.42694837 0.56221521 -0.031010465696454048 0.9971379041671753 -0.06895173341035843 238.0 51.0 1.0 1.0
-0.91367811 0.41887894 0.56418788 -0.031010465696454048 0.9971379041671753 -0.06895173341035843 241.0 51.0 1.0 1.0
-0.90718424 0.42597678 0.60111392 -0.02850603312253952 0.9967212080955505 -0.07572580128908157 235.0 52.0 1.0 1.0
-0.89595962 0.40933618 0.59085125 -0.02850603312253952 0.9967212080955505 -0.07572580128908157 232.0 52.0 1.0 1.0
-0.88862079 0.41527861 0.62799168 -0.017472241073846817 0.9993825554847717 -0.030480895191431046 229.0 53.0 1.0 1.0
-0.90210664 0.41011438 0.6344738 -0.017472241073846817 0.9993825554847717 -0.030480895191431046 238.0 53.0 1.0 1.0
-0.9019922 0.4192833 0.67962927 -0.025294963270425797 0.9965068697929382 -0.07958734780550003 235.0 54.0 1.0 1.0
-0.90631074 0.40980586 0.67964572 -0.025294963270425797 0.9965068697929382 -0.07958734780550003 241.0 54.0 1.0 1.0
-0.89534324 0.41400394 0.71908617 -0.029295451939105988 0.9970167279243469 -0.07141158729791641 232.0 55.0 1.0 1.0
-0.89665562 0.403274 0.71674746 -0.029295451939105988 0.9970167279243469 -0.07141158729791641 235.0 55.0 1.0 1.0
-0.88707125 0.40746081 0.75931144 -0.027831686660647392 0.9984269738197327 -0.048673853278160095 223.0 56.0 1.0 1.0
-0.87972456 0.39300224 0.74950874 -0.027831686660647392 0.9984269738197327 -0.048673853278160095 220.0 56.0 1.0 1.0
-0.88532293 0.40357456 0.80800736 -0.015932733193039894 0.9989044666290283 -0.044001106172800064 226.0 57.0 1.0 1.0
-0.86976641 0.38556525 0.79014242 -0.010495269671082497 0.9995636343955994 -0.027612732723355293 211.0 57.0 1.0 1.0
-0.87278223 0.39484966 0.85008723 0.00028684380231425166 0.999987781047821 0.004937429912388325 223.0 58.0 1.0 1.0
-0.88506687 0.38928244 0.85806501 0.00028684380231425166 0.999987781047821 0.004937429912388325 226.0 58.0 1.0 1.0
-0.8843047 0.39625397 0.92081523 -0.009599556215107441 0.9999459385871887 -0.003999992739409208 232.0 59.0 1.0 1.0
-0.88039762 0.3834964 0.91256768 -0.040003810077905655 0.9988502264022827 0.026419097557663918 232.0 59.0 1.0 1.0
-0.8840152 0.39143547 0.98580259 -0.0047734882682561874 0.9996674656867981 -0.025342192500829697 244.0 60.0 1.0 1.0
-0.88288891 0.3799375 0.98010838 -0.020278699696063995 0.999581515789032 -0.02062874659895897 244.0 60.0 1.0 1.0
-0.88209105 0.38520607 1.0559013 0.0026241110172122717 0.9997222423553467 -0.023418141528964043 253.0 61.0 1.0 1.0
-0.88853109 0.37698519 1.0588727 0.0026241110172122717 0.9997222423553467 -0.023418141528964043 250.0 61.0 1.0 1.0
-0.88461965 0.38040215 1.1406771 -0.0443815179169178 0.9912115931510925 -0.12461929023265839 255.0 62.0 1.0 1.0
-0.88852531 0.37110513 1.1406928 -0.03737930953502655 0.9914957880973816 -0.12465500831604004 255.0 62.0 1.0 1.0
-0.88535047 0.37339962 1.2350296 -0.04740048944950104 0.9977768659591675 -0.04684610664844513 255.0 63.0 1.0 1.0
-0.88463175 0.36223862 1.2287322 -0.03289606422185898 0.9959357380867004 -0.08384432643651962 255.0 63.0 1.0 1.0
-0.36314082 0.30605468 -0.62342376 0.11373664438724518 0.783996045589447 0.6102575659751892 241.0 0.0 1.0 1.0
-0.35884023 0.29609469 -0.61067677 0.11373664438724518 0.783996045589447 0.6102575659751892 238.0 0.0 1.0 1.0
-0.39027616 0.32441872 -0.61289686 0.13206052780151367 0.04026852175593376 0.9904233813285828 238.0 1.0 1.0 1.0
-0.39364785 0.32031628 -0.61288869 0.13206052780151367 0.04026852175593376 0.9904233813285828 232.0 1.0 1.0 1.0
-0.40767398 0.33520737 -0.59020805 0.22792813181877136 0.06950093060731888 0.971194326877594 214.0 2.0 1.0 1.0
-0.42985848 0.34590808 -0.6170637 0.22792813181877136 0.06950093060731888 0.971194326877594 235.0 2.0 1.0 1.0
-0.46040127 0.3747229 -0.61645693 0.15771295130252838 -0.07884468138217926 0.984332263469696 235.0 3.0 1.0 1.0
-0.45778316 0.36471558 -0.60779417 0.15771295130252838 -0.07884468138217926 0.984332263469696 232.0 3.0 1.0 1.0
-0.47624576 0.38463202 -0.59234864 0.15818309783935547 0.01680927164852619 0.9872667193412781 229.0 4.0 1.0 1.0
-0.49152267 0.38850832 -0.60626245 0.15818309783935547 0.01680927164852619 0.9872667193412781 235.0 4.0 1.0 1.0
-0.51406699 0.41204968 -0.59519851 0.1933755725622177 -0.006917955353856087 0.9811004400253296 226.0 5.0 1.0 1.0
-0.51834923 0.40664616 -0.59518784 0.21333466470241547 -0.027735112234950066 0.9765853881835938 232.0 5.0 1.0 1.0
-0.55205709 0.43964031 -0.59627014 0.21333466470241547 -0.027735112234950066 0.9765853881835938 241.0 6.0 1.0 1.0
-0.54939359 0.42821923 -0.58850455 0.21144120395183563 -0.13575032353401184 0.9679176211357117 241.0 6.0 1.0 1.0
-0.58026797 0.45963901 -0.58567989 0.07212851196527481 -0.1385287642478943 0.9877282977104187 241.0 7.0 1.0 1.0
-0.58752507 0.45545581 -0.58815289 0.07230739295482635 -0.11966285109519958 0.9901779890060425 241.0 7.0 1.0 1.0
-0.61808401 0.48730215 -0.58380067 0.05360700190067291 -0.11980438232421875 0.9913491010665894 253.0 8.0 1.0 1.0
-0.62823749 0.48472005 -0.5885601 0.13660724461078644 -0.11417125165462494 0.9840241074562073 255.0 8.0 1.0 1.0
-0.661304 0.51892841 -0.58475089 0.13748107850551605 -0.01918693445622921 0.9903185367584229 255.0 9.0 1.0 1.0
-0.65627575 0.50399667 -0.57558805 0.13748107850551605 -0.01918693445622921 0.9903185367584229 247.0 9.0 1.0 1.0
-0.69672441 0.54495835 -0.57685047 0.1615733653306961 -0.038655709475278854 0.986103355884552 255.0 10.0 1.0 1.0
-0.70238835 0.53763437 -0.57683611 0.1615733653306961 -0.038655709475278854 0.986103355884552 253.0 10.0 1.0 1.0
-0.74034929 0.57698965 -0.57362968 0.12488898634910583 0.0005204146727919579 0.9921706318855286 255.0 11.0 1.0 1.0
-0.73277134 0.55888015 -0.56317031 0.12488898634910583 0.0005204146727919579 0.9921706318855286 255.0 11.0 1.0 1.0
-0.78156155 0.60713607 -0.56594777 0.15222862362861633 0.06162630766630173 0.9864221811294556 255.0 12.0 1.0 1.0
-0.78234065 0.59472615 -0.5619545 0.15222862362861633 0.06162630766630173 0.9864221811294556 255.0 12.0 1.0 1.0
-0.83092797 0.64384675 -0.56223053 0.1475992202758789 0.013895037584006786 0.988949716091156 255.0 13.0 1.0 1.0
-0.84324306 0.63936639 -0.56599212 0.11124517768621445 0.01396170910447836 0.9936949014663696 255.0 13.0 1.0 1.0
-0.86921501 0.67207021 -0.5486899 0.1412666290998459 -0.02681914158165455 0.9896082282066345 255.0 14.0 1.0 1.0
-0.88476473 0.66939914 -0.55404162 0.10102034360170364 0.014025970362126827 0.9947855472564697 255.0 14.0 1.0 1.0
-0.93328238 0.72002077 -0.54856789 0.42626523971557617 0.40738430619239807 0.8076731562614441 255.0 15.0 1.0 1.0
-0.94655687 0.71457309 -0.55192947 0.42626523971557617 0.40738430619239807 0.8076731562614441 255.0 15.0 1.0 1.0
-0.98041952 0.48500866 -0.47360218 -0.010794774629175663 0.9995514750480652 0.027936110273003578 255.0 16.0 1.0 1.0
-1.0052849 0.48424989 -0.483136 -0.014192347414791584 0.9995089769363403 0.02793492190539837 255.0 16.0 1.0 1.0
-1.001067 0.49656034 -0.44817197 -0.021489830687642097 0.9989318251609802 -0.0409061461687088 255.0 17.0 1.0 1.0
-0.98614269 0.47638693 -0.43920437 -0.014186001382768154 0.9990621209144592 -0.0409114807844162 255.0 17.0 1.0 1.0
-0.97400033 0.4847123 -0.40247512 -0.006736214738339186 0.9998002052307129 -0.018820878118276596 255.0 18.0 1.0 1.0
-0.9958998 0.48264647 -0.40941033 -0.002699602860957384 0.9998192191123962 -0.018821237608790398 255.0 18.0 1.0 1.0
-0.99295634 0.4954741 -0.37708548 -0.00013768051576334983 0.9988736510276794 -0.047446902841329575 255.0 19.0 1.0 1.0
-0.9810459 0.47679299 -0.37061903 -0.012360533699393272 0.9987974166870117 -0.04744328185915947 255.0 19.0 1.0 1.0
-0.97377008 0.48704293 -0.33805338 0.01727810502052307 0.9986243844032288 -0.04950648546218872 255.0 20.0 1.0 1.0
-0.99942094 0.48683169 -0.34516928 -0.00823888648301363 0.9987395405769348 -0.04951219633221626 255.0 20.0 1.0 1.0
-0.99127215 0.49690878 -0.3126345 0.01727810502052307 0.9986243844032288 -0.04950648546218872 255.0 21.0 1.0 1.0
-0.98257023 0.47976065 -0.30826336 -0.019011585041880608 0.9980019330978394 -0.06025441363453865 255.0 21.0 1.0 1.0
-0.98399013 0.49439642 -0.27938884 -0.02515210583806038 0.9995734095573425 0.014844165183603764 255.0 22.0 1.0 1.0
-0.99955577 0.48916468 -0.28233057 -0.02515210583806038 0.9995734095573425 0.014844165183603764 255.0 22.0 1.0 1.0
-0.98282295 0.49472296 -0.24893671 -0.025127286091446877 0.9985869526863098 -0.04682566598057747 255.0 23.0 1.0 1.0
-0.98794055 0.48440281 -0.24891885 -0.015100752003490925 0.9996278882026672 -0.02271581068634987 255.0 23.0 1.0 1.0
-1.0090126 0.50858438 -0.22511165 -0.027324646711349487 0.99908846616745 -0.03279435262084007 255.0 24.0 1.0 1.0
-0.97200084 0.4772906 -0.21568069 0.0001251023932127282 0.9994617104530334 -0.032806601375341415 255.0 24.0 1.0 1.0
-0.96776825 0.48874864 -0.1868706 -0.027324646711349487 0.99908846616745 -0.03279435262084007 255.0 25.0 1.0 1.0
-0.99759269 0.49073735 -0.19162986 -0.001498825615271926 0.9993488788604736 -0.03605072572827339 255.0 25.0 1.0 1.0
-0.97503668 0.49309975 -0.15935715 -0.020906653255224228 0.9990903735160828 -0.03716691583395004 255.0 26.0 1.0 1.0
-0.98013616 0.48286089 -0.1593394 -0.001498763682320714 0.9993076324462891 -0.037174999713897705 255.0 26.0 1.0 1.0
-0.98172879 0.49695453 -0.13183875 -0.02371656335890293 0.9985522627830505 -0.048279792070388794 255.0 27.0 1.0 1.0
-0.97617692 0.48138794 -0.13038446 -0.013712613843381405 0.9991000890731812 -0.040138859301805496 255.0 27.0 1.0 1.0
-0.97705817 0.49528843 -0.10278458 -0.02371656335890293 0.9985522627830505 -0.048279792070388794 255.0 28.0 1.0 1.0
-0.97860718 0.48326853 -0.10239016 0.011355850845575333 0.9950099587440491 -0.09912753850221634 255.0 28.0 1.0 1.0
-0.98256296 0.49833602 -0.074931905 -0.02981438674032688 0.9963204264640808 -0.080352783203125 255.0 29.0 1.0 1.0
-0.99487501 0.49154478 -0.075462736 0.0019189961021766067 0.9967617988586426 -0.0803883746266365 255.0 29.0 1.0 1.0
-0.97664374 0.49581909 -0.04644284 -0.029911067336797714 0.9995512366294861 0.0016488186083734035 255.0 30.0 1.0 1.0
-0.98177016 0.48556229 -0.046425063 0.0019252242054790258 0.9999967813491821 0.001649553538300097 255.0 30.0 1.0 1.0
-0.96667635 0.49082074 -0.018354699 -0.005150968208909035 0.9985812902450562 -0.052999671548604965 255.0 31.0 1.0 1.0
-0.9717505 0.48066834 -0.018337106 -0.005150968208909035 0.9985812902450562 -0.052999671548604965 255.0 31.0 1.0 1.0
-0.96029133 0.73368651 0.010142092 -0.02757960371673107 0.999264121055603 -0.02665494568645954 255.0 32.0 1.0 1.0
-0.96149677 0.71880358 0.010099768 -0.02757960371673107 0.999264121055603 -0.02665494568645954 255.0 32.0 1.0 1.0
-0.94679415 0.72397637 0.040364027 -0.027574636042118073 0.9990840554237366 -0.03271975740790367 255.0 33.0 1.0 1.0
-0.95431012 0.71401894 0.040383372 0.00812529493123293 0.999962568283081 0.002975648967549205 255.0 33.0 1.0 1.0
-0.94870484 0.72575599 0.070939593 0.026179756969213486 0.9964239597320557 -0.08033592253923416 255.0 34.0 1.0 1.0
-0.95943797 0.71816796 0.071193591 0.008109520189464092 0.9980212450027466 -0.062352485954761505 255.0 34.0 1.0 1.0
-0.95328087 0.72930944 0.10205153 0.026257572695612907 0.9993857145309448 -0.023210685700178146 255.0 35.0 1.0 1.0
-0.93849987 0.70258433 0.099716045 0.026257572695612907 0.9993857145309448 -0.023210685700178146 255.0 35.0 1.0 1.0
-0.94747031 0.72545636 0.13225229 0.0034987686667591333 0.9999936819076538 -0.0004500123322941363 255.0 36.0 1.0 1.0
-0.9422636 0.70596749 0.13051879 0.0034987686667591333 0.9999936819076538 -0.0004500123322941363 255.0 36.0 1.0 1.0
-0.94103622 0.72112048 0.16239136 0.0005749384872615337 0.9995723366737366 -0.029238475486636162 255.0 37.0 1.0 1.0
-0.96121377 0.72072065 0.16457251 0.00349696003831923 0.9994767308235168 -0.03215775638818741 255.0 37.0 1.0 1.0
-0.96524787 0.74050051 0.19847208 0.014761211350560188 0.9973909258842468 -0.0706641748547554 255.0 38.0 1.0 1.0
-0.93501651 0.70194006 0.19078983 0.0005742645589634776 0.9984005689620972 -0.0565338172018528 255.0 38.0 1.0 1.0
-0.93551791 0.71857589 0.22376183 0.014793386682868004 0.9995650053024292 -0.025514591485261917 255.0 39.0 1.0 1.0
-0.95240825 0.71580982 0.22601068 0.014793386682868004 0.9995650053024292 -0.025514591485261917 255.0 39.0 1.0 1.0
-0.96135956 0.7389819 0.26269084 0.02088535577058792 0.9992823004722595 -0.031603530049324036 255.0 40.0 1.0 1.0
-0.95026851 0.71478534 0.2576414 0.02088535577058792 0.9992823004722595 -0.031603530049324036 255.0 40.0 1.0 1.0
-0.93041849 0.71633929 0.28662932 0.019567260518670082 0.999571681022644 -0.021765729412436485 255.0 41.0 1.0 1.0
-0.9285332 0.69954461 0.28380886 0.02089022286236286 0.9995151162147522 -0.023088566958904266 255.0 41.0 1.0 1.0
-0.94510478 0.72873837 0.32435969 0.011829014867544174 0.9981544017791748 -0.05956459790468216 255.0 42.0 1.0 1.0
-0.94341534 0.71182871 0.32123756 0.010412679053843021 0.9982260465621948 -0.0586213581264019 255.0 42.0 1.0 1.0
-0.94947535 0.7334888 0.36035773 0.012854021973907948 0.9983726739883423 -0.05555909872055054 255.0 43.0 1.0 1.0
-0.92955863 0.70273173 0.35003808 0.012854021973907948 0.9983726739883423 -0.05555909872055054 255.0 43.0 1.0 1.0
-0.92891532 0.71899676 0.38695917 -0.006766022183001041 0.9988127946853638 -0.04824176803231239 255.0 44.0 1.0 1.0
-0.92425036 0.70005888 0.38197923 -0.006766022183001041 0.9988127946853638 -0.04824176803231239 255.0 44.0 1.0 1.0
-0.94060767 0.72940981 0.42764512 -0.004333130549639463 0.9989405870437622 -0.04581418260931969 255.0 45.0 1.0 1.0
-0.94517416 0.71724051 0.42631358 -0.004333130549639463 0.9989405870437622 -0.04581418260931969 255.0 45.0 1.0 1.0
-0.92460519 0.71864384 0.45627433 0.0010296028340235353 0.9984704256057739 -0.05527761951088905 255.0 46.0 1.0 1.0
-0.92018402 0.69990033 0.45049089 0.0010296028340235353 0.9984704256057739 -0.05527761951088905 255.0 46.0 1.0 1.0
-0.92549646 0.72070205 0.49405256 -0.006519052665680647 0.9991697072982788 -0.040217574685811996 255.0 47.0 1.0 1.0
-0.93884259 0.71542776 0.49717385 -0.006519052665680647 0.9991697072982788 -0.040217574685811996 255.0 47.0 1.0 1.0
-0.94106263 0.47171184 0.47921005 -0.04139703884720802 0.9942232966423035 -0.09902743250131607 255.0 48.0 1.0 1.0
-0.91973871 0.44907424 0.4659836 -0.03950561210513115 0.9944769740104675 -0.09723538905382156 247.0 48.0 1.0 1.0
-0.90999615 0.45505315 0.49767497 -0.027644848451018333 0.9878459572792053 -0.15295834839344025 247.0 49.0 1.0 1.0
-0.91792482 0.44706172 0.4994472 -0.0013658449752256274 0.9933524131774902 -0.11510475724935532 247.0 49.0 1.0 1.0
-0.91671842 0.45706892 0.53715813 -0.030410444363951683 0.9949031472206116 -0.096140556037426 247.0 50.0 1.0 1.0
-0.91505563 0.44434887 0.53346282 -0.030410444363951683 0.9949031472206116 -0.096140556037426 238.0 50.0 1.0 1.0
-0.90641153 0.45043167 0.56802803 -0.015015644021332264 0.9977427124977112 -0.0654517337679863 235.0 51.0 1.0 1.0
-0.90163052 0.43635911 0.56217641 -0.028515076264739037 0.9970374703407288 -0.0714370608329773 232.0 51.0 1.0 1.0
-0.90736383 0.44939315 0.60722584 -0.03153150901198387 0.996854305267334 -0.07271423935890198 244.0 52.0 1.0 1.0
-0.88416696 0.42647627 0.58874077 -0.03153150901198387 0.996854305267334 -0.07271423935890198 226.0 52.0 1.0 1.0
-0.88584793 0.43672368 0.63224757 -0.017472241073846817 0.9993825554847717 -0.030480895191431046 223.0 53.0 1.0 1.0
-0.90554959 0.43468761 0.64303929 -0.017472241073846817 0.9993825554847717 -0.030480895191431046 238.0 53.0 1.0 1.0
-0.90199053 0.4423871 0.6863395 -0.02398848906159401 0.9964346289634705 -0.08088622987270355 238.0 54.0 1.0 1.0
-0.88567048 0.4229686 0.67057008 -0.025294963270425797 0.9965068697929382 -0.07958734780550003 229.0 54.0 1.0 1.0
-0.88945884 0.43403059 0.72138637 -0.024035822600126266 0.9984008073806763 -0.051167502999305725 232.0 55.0 1.0 1.0
-0.90269899 0.42883515 0.72846699 -0.011216075159609318 0.999200701713562 -0.03836952522397041 241.0 55.0 1.0 1.0
-0.87841994 0.42590094 0.75925714 -0.027831686660647392 0.9984269738197327 -0.048673853278160095 217.0 56.0 1.0 1.0
-0.89423996 0.4220472 0.76909125 -0.027831686660647392 0.9984269738197327 -0.048673853278160095 229.0 56.0 1.0 1.0
-0.88785732 0.42730403 0.81817007 -0.015932733193039894 0.9989044666290283 -0.044001106172800064 229.0 57.0 1.0 1.0
-0.86994588 0.4075546 0.79775149 -0.015932733193039894 0.9989044666290283 -0.044001106172800064 214.0 57.0 1.0 1.0
-0.87791258 0.41942647 0.86330259 0.0018760424572974443 0.9999924898147583 -0.003400422865524888 223.0 58.0 1.0 1.0
-0.88223171 0.4102 0.86331826 0.0018760424572974443 0.9999924898147583 -0.003400422865524888 223.0 58.0 1.0 1.0
-0.87589616 0.4146364 0.92076093 -0.009599556215107441 0.9999459385871887 -0.003999992739409208 223.0 59.0 1.0 1.0
-0.89070863 0.41027164 0.93179411 -0.009599556215107441 0.9999459385871887 -0.003999992739409208 244.0 59.0 1.0 1.0
-0.8833276 0.41336557 0.99431288 -0.006347444374114275 0.9995768666267395 -0.028387388214468956 244.0 60.0 1.0 1.0
-0.88502991 0.40292391 0.99147367 -0.004772878251969814 0.9995396733283997 -0.029960665851831436 244.0 60.0 1.0 1.0
-0.87636918 0.40467 1.0588024 0.0026241110172122717 0.9997222423553467 -0.023418141528964043 244.0 61.0 1.0 1.0
-0.88053125 0.39545882 1.0588179 0.0026241110172122717 0.9997222423553467 -0.023418141528964043 247.0 61.0 1.0 1.0
-0.87890375 0.39985797 1.1436783 -0.0443815179169178 0.9912115931510925 -0.12461929023265839 253.0 62.0 1.0 1.0
-0.88065249 0.38957855 1.140638 -0.0443815179169178 0.9912115931510925 -0.12461929023265839 255.0 62.0 1.0 1.0
-0.88865834 0.39680043 1.2507572 -0.04740048944950104 0.9977768659591675 -0.04684610664844513 255.0 63.0 1.0 1.0
-0.88371456 0.38355753 1.2381469 -0.04740048944950104 0.9977768659591675 -0.04684610664844513 255.0 63.0 1.0 1.0
-0.36175796 0.31139666 -0.62663198 0.08162833005189896 0.7864832282066345 0.6121935844421387 241.0 0.0 1.0 1.0
-0.35483918 0.31197789 -0.62026966 0.009582551196217537 0.8052522540092468 0.592854917049408 232.0 0.0 1.0 1.0
-0.4004803 0.33998013 -0.63450861 0.13206052780151367 0.04026852175593376 0.9904233813285828 250.0 1.0 1.0 1.0
-0.3853341 0.33416384 -0.61601281 0.009582551196217537 0.8052522540092468 0.592854917049408 238.0 1.0 1.0 1.0
-0.40414754 0.33943772 -0.59023219 0.22792813181877136 0.06950093060731888 0.971194326877594 226.0 2.0 1.0 1.0
-0.41474643 0.35575587 -0.61113578 0.0996810719370842 0.14162766933441162 0.98488849401474 232.0 2.0 1.0 1.0
-0.44792107 0.3724319 -0.60494405 0.15771295130252838 -0.07884468138217926 0.984332263469696 229.0 3.0 1.0 1.0
-0.44400087 0.3770996 -0.60495335 0.09813202172517776 -0.018408821895718575 0.9950030446052551 232.0 3.0 1.0 1.0
-0.46554458 0.38410628 -0.58401942 0.15818309783935547 0.01680927164852619 0.9872667193412781 223.0 4.0 1.0 1.0
-0.47029704 0.39634389 -0.59516859 0.15818309783935547 0.01680927164852619 0.9872667193412781 229.0 4.0 1.0 1.0
-0.50513679 0.41363859 -0.58985496 0.1933755725622177 -0.006917955353856087 0.9811004400253296 226.0 5.0 1.0 1.0
-0.49850473 0.41700473 -0.58718061 0.19304515421390533 0.058839425444602966 0.9794241189956665 235.0 5.0 1.0 1.0
-0.54743123 0.44537392 -0.59629685 0.1933755725622177 -0.006917955353856087 0.9811004400253296 238.0 6.0 1.0 1.0
-0.54039097 0.44913253 -0.59372318 0.09614835679531097 -0.007018377538770437 0.9953422546386719 238.0 6.0 1.0 1.0
-0.57787132 0.46763417 -0.58819216 0.07212851196527481 -0.1385287642478943 0.9877282977104187 244.0 7.0 1.0 1.0
-0.56810999 0.46967065 -0.58323359 0.14324218034744263 -0.20828412473201752 0.9675222635269165 241.0 7.0 1.0 1.0
-0.61045367 0.49171293 -0.58144224 0.05360700190067291 -0.11980438232421875 0.9913491010665894 247.0 8.0 1.0 1.0
-0.60527581 0.49807632 -0.58145475 0.05360700190067291 -0.11980438232421875 0.9913491010665894 250.0 8.0 1.0 1.0
-0.64302933 0.51555306 -0.57334244 0.11247678101062775 -0.031060896813869476 0.9931687712669373 253.0 9.0 1.0 1.0
-0.63759989 0.52225667 -0.57335562 0.11247678101062775 -0.031060896813869476 0.9931687712669373 247.0 9.0 1.0 1.0
-0.68837231 0.55011052 -0.57469153 0.16161751747131348 0.030799897387623787 0.986372709274292 253.0 10.0 1.0 1.0
-0.67478961 0.55094355 -0.56814092 0.08349157869815826 0.031101230531930923 0.9960230588912964 250.0 10.0 1.0 1.0
-0.74763393 0.59529179 -0.58410424 0.12479466199874878 -0.038864169269800186 0.9914211630821228 255.0 11.0 1.0 1.0
-0.72547179 0.59018838 -0.57158566 0.08353165537118912 0.0028391319792717695 0.9965011477470398 255.0 11.0 1.0 1.0
-0.76701099 0.60879493 -0.5600124 0.15222862362861633 0.06162630766630173 0.9864221811294556 255.0 12.0 1.0 1.0
-0.76869303 0.62334031 -0.5659942 0.15221954882144928 0.06258396059274673 0.9863632321357727 255.0 12.0 1.0 1.0
-0.81862056 0.64811218 -0.55848318 0.1475992202758789 0.013895037584006786 0.988949716091156 255.0 13.0 1.0 1.0
-0.80905044 0.65443265 -0.55661029 0.1475992202758789 0.013895037584006786 0.988949716091156 255.0 13.0 1.0 1.0
-0.87619019 0.69217783 -0.55767179 0.14672541618347168 -0.026797626167535782 0.9888142347335815 255.0 14.0 1.0 1.0
-0.86054116 0.69458157 -0.55231959 0.14672541618347168 -0.026797626167535782 0.9888142347335815 255.0 14.0 1.0 1.0
-0.92000896 0.72523898 -0.54522032 0.2381594330072403 -0.06602386385202408 0.9689792990684509 255.0 15.0 1.0 1.0
-0.91236889 0.73483181 -0.54523897 0.46486544609069824 -0.1288725733757019 0.8759520649909973 255.0 15.0 1.0 1.0
-0.99494249 0.50516033 -0.48319429 -0.010794774629175663 0.9995514750480652 0.027936110273003578 255.0 16.0 1.0 1.0
-0.97657919 0.50878268 -0.47684368 -0.010794774629175663 0.9995514750480652 0.027936110273003578 255.0 16.0 1.0 1.0
-0.98589873 0.50193906 -0.44373697 -0.021489830687642097 0.9989318251609802 -0.0409061461687088 255.0 17.0 1.0 1.0
-0.9904694 0.5173797 -0.44823006 -0.021489830687642097 0.9989318251609802 -0.0409061461687088 255.0 17.0 1.0 1.0
-0.99227983 0.50676495 -0.41224962 -0.006736214738339186 0.9998002052307129 -0.018820878118276596 255.0 18.0 1.0 1.0
-0.99689752 0.52233869 -0.4164398 -0.021482722833752632 0.998601496219635 -0.04830748215317726 255.0 18.0 1.0 1.0
-0.98435789 0.50408596 -0.37583557 -0.00013768051576334983 0.9988736510276794 -0.047446902841329575 255.0 19.0 1.0 1.0
-0.97567904 0.51260829 -0.37456343 -0.006725031416863203 0.998140275478363 -0.06058696284890175 255.0 19.0 1.0 1.0
-0.99583131 0.51109827 -0.34760538 -0.00013739251880906522 0.9967842102050781 -0.08013392984867096 255.0 20.0 1.0 1.0
-0.97014511 0.51084346 -0.34048852 0.002948286011815071 0.9994416236877441 -0.033282529562711716 255.0 20.0 1.0 1.0
-0.9826085 0.50546634 -0.31158587 0.01727810502052307 0.9986243844032288 -0.04950648546218872 255.0 21.0 1.0 1.0
-0.99089408 0.52289939 -0.31595755 0.01727810502052307 0.9986243844032288 -0.04950648546218872 255.0 21.0 1.0 1.0
-0.98222631 0.50640696 -0.28041515 -0.02515210583806038 0.9995734095573425 0.014844165183603764 255.0 22.0 1.0 1.0
-0.97344971 0.51485652 -0.27944613 0.005710904020816088 0.9997449517250061 0.02184969373047352 255.0 22.0 1.0 1.0
-0.96720648 0.49958903 -0.24631917 -0.025127286091446877 0.9985869526863098 -0.04682566598057747 255.0 23.0 1.0 1.0
-0.99296975 0.52609336 -0.25430852 0.005709054414182901 0.9994210600852966 -0.033543188124895096 255.0 23.0 1.0 1.0
-0.97228098 0.5028981 -0.21809106 -0.018666917458176613 0.9995343089103699 -0.024139059707522392 255.0 24.0 1.0 1.0
-0.99123883 0.525895 -0.22360072 -0.018666917458176613 0.9995343089103699 -0.024139059707522392 255.0 24.0 1.0 1.0
-0.99763399 0.51691049 -0.1937353 -0.027324646711349487 0.99908846616745 -0.03279435262084007 255.0 25.0 1.0 1.0
-0.98521155 0.52363837 -0.19238809 -0.027324646711349487 0.99908846616745 -0.03279435262084007 255.0 25.0 1.0 1.0
-0.98741782 0.51233667 -0.16229846 -0.020906653255224228 0.9990903735160828 -0.03716691583395004 255.0 26.0 1.0 1.0
-0.97851318 0.52079457 -0.16173582 -0.027313392609357834 0.9986770153045654 -0.04356693476438522 255.0 26.0 1.0 1.0
-0.96944344 0.50351244 -0.13092032 -0.01412817370146513 0.9990434050559998 -0.04138559475541115 255.0 27.0 1.0 1.0
-0.97114193 0.5173654 -0.13189587 -0.01412817370146513 0.9990434050559998 -0.04138559475541115 255.0 27.0 1.0 1.0
-0.98951858 0.5146184 -0.10470785 -0.02371656335890293 0.9985522627830505 -0.048279792070388794 255.0 28.0 1.0 1.0
-0.98057085 0.52308387 -0.10434887 -0.02371656335890293 0.9985522627830505 -0.048279792070388794 255.0 28.0 1.0 1.0
-0.96314955 0.50120163 -0.073873378 -0.02981438674032688 0.9963204264640808 -0.080352783203125 255.0 29.0 1.0 1.0
-0.97194964 0.51876336 -0.074989028 -0.02981438674032688 0.9963204264640808 -0.080352783203125 255.0 29.0 1.0 1.0
-0.98915732 0.51518661 -0.047344822 -0.0038133985362946987 0.9991389513015747 -0.04131363704800606 255.0 30.0 1.0 1.0
-0.96608579 0.51612282 -0.046499718 -0.0038133985362946987 0.9991389513015747 -0.04131363704800606 255.0 30.0 1.0 1.0
-0.98280597 0.51193541 -0.018818561 -0.005150968208909035 0.9985812902450562 -0.052999671548604965 255.0 31.0 1.0 1.0
-0.98446238 0.52596366 -0.018978022 -0.005150968208909035 0.9985812902450562 -0.052999671548604965 255.0 31.0 1.0 1.0
-0.94943476 0.74119979 0.010077463 -0.0074968840926885605 0.999616265296936 -0.026664339005947113 255.0 32.0 1.0 1.0
-0.95102149 0.75857824 0.010150669 -0.0074968840926885605 0.999616265296936 -0.026664339005947113 255.0 32.0 1.0 1.0
-0.96756887 0.75593269 0.041524656 -0.010518478229641914 0.9994089007377625 -0.03273039311170578 255.0 33.0 1.0 1.0
-0.95648658 0.76353508 0.0413725 -0.007496240083128214 0.9995304942131042 -0.029710862785577774 255.0 33.0 1.0 1.0
-0.95997894 0.75034291 0.072313033 -0.012906163930892944 0.9966825842857361 -0.08035678416490555 255.0 34.0 1.0 1.0
-0.97081727 0.77529192 0.073700279 -0.01049208827316761 0.9969014525413513 -0.07795751839876175 255.0 34.0 1.0 1.0
-0.95191354 0.74410987 0.1026905 -0.012946579605340958 0.9998037219047546 -0.014996567741036415 255.0 35.0 1.0 1.0
-0.93161678 0.7441023 0.10132632 -0.012946579605340958 0.9998037219047546 -0.014996567741036415 255.0 35.0 1.0 1.0
-0.95552838 0.74752688 0.13440925 0.0016003841301426291 0.9999986290931702 -0.000450014544185251 255.0 36.0 1.0 1.0
-0.95698649 0.76493466 0.13570406 0.0016003841301426291 0.9999986290931702 -0.000450014544185251 255.0 36.0 1.0 1.0
-0.94908649 0.74309057 0.16505978 0.0015996999572962523 0.9995711445808411 -0.029238443821668625 255.0 37.0 1.0 1.0
-0.96294796 0.77030349 0.16882269 -0.01144781056791544 0.9998033046722412 -0.016197359189391136 255.0 37.0 1.0 1.0
-0.94193321 0.73835534 0.19522972 -0.03653339669108391 0.9968336820602417 -0.0706246867775917 255.0 38.0 1.0 1.0
-0.94033295 0.75311333 0.19649401 0.005279423203319311 0.9996364712715149 -0.026439931243658066 255.0 38.0 1.0 1.0
-0.95583057 0.75009727 0.23041673 -0.0030993702821433544 0.9994955062866211 -0.03161027655005455 255.0 39.0 1.0 1.0
-0.95100772 0.76252574 0.23114049 -0.03654741868376732 0.9972162246704102 -0.06499327719211578 255.0 39.0 1.0 1.0
-0.93514925 0.73448604 0.25758874 -0.0030993702821433544 0.9994955062866211 -0.03161027655005455 255.0 40.0 1.0 1.0
-0.95183569 0.76379699 0.26432723 -0.0030993702821433544 0.9994955062866211 -0.03161027655005455 255.0 40.0 1.0 1.0
-0.9412505 0.74039346 0.29227448 -0.0007761670276522636 0.9997627139091492 -0.02176988683640957 255.0 41.0 1.0 1.0
-0.93649393 0.75264633 0.29320177 -0.0007761670276522636 0.9997627139091492 -0.02176988683640957 255.0 41.0 1.0 1.0
-0.93443185 0.73615837 0.32327932 -0.0007749723736196756 0.9982238411903381 -0.05956874415278435 255.0 42.0 1.0 1.0
-0.94173676 0.75799787 0.32849532 0.012843813747167587 0.9975797533988953 -0.0683349147439003 255.0 42.0 1.0 1.0
-0.92974949 0.73385549 0.35572964 0.012854021973907948 0.9983726739883423 -0.05555909872055054 255.0 43.0 1.0 1.0
-0.92501569 0.74595982 0.35685948 0.012854021973907948 0.9983726739883423 -0.05555909872055054 255.0 43.0 1.0 1.0
-0.92436445 0.73098725 0.38817582 0.012854021973907948 0.9983726739883423 -0.05555909872055054 255.0 44.0 1.0 1.0
-0.9373818 0.75733012 0.39690408 -0.014254885725677013 0.9997867345809937 -0.014947139658033848 255.0 44.0 1.0 1.0
-0.93591934 0.74150229 0.42896265 0.006527128163725138 0.9989999532699585 -0.044231586158275604 255.0 45.0 1.0 1.0
-0.93397862 0.75600129 0.43164498 0.006527128163725138 0.9989999532699585 -0.044231586158275604 255.0 45.0 1.0 1.0
-0.90831316 0.72128785 0.45188999 -0.00432823970913887 0.9978131651878357 -0.06595557183027267 255.0 46.0 1.0 1.0
-0.9181115 0.74484164 0.46057415 -0.022319834679365158 0.997573971748352 -0.0659397691488266 255.0 46.0 1.0 1.0
