ply
format ascii 1.0
element vertex 414
property float x
property float y
property float z
property float nx
property float ny
property float nz
property float intensity
property float ring
property float return
property float label
end_header
-0.77486324 0.11250579 -0.5814876 0.1402718722820282 -0.11414284259080887 0.9835116863250732 247.0 8.0 1.0 1.0
-0.79190511 0.10651312 -0.59341872 0.10463383048772812 -0.08514323830604553 0.9908593893051147 255.0 8.0 1.0 1.0
-0.82154024 0.11730726 -0.57793599 0.17825524508953094 0.07782173156738281 0.9809021353721619 255.0 9.0 1.0 1.0
-0.82922244 0.1095486 -0.58251786 0.10490497201681137 0.04579886049032211 0.993427038192749 255.0 9.0 1.0 1.0
-0.84512866 0.1192613 -0.5571928 0.17740106582641602 0.009286976419389248 0.9840947985649109 250.0 10.0 1.0 1.0
-0.87621778 0.11428573 -0.57687813 0.17740106582641602 0.009286976419389248 0.9840947985649109 255.0 10.0 1.0 1.0
-0.93216491 0.1297956 -0.57570106 0.150242879986763 -0.07896243035793304 0.9854906797409058 255.0 11.0 1.0 1.0
-0.94023192 0.1208889 -0.57988733 0.1222318559885025 -0.0792701318860054 0.9893308877944946 255.0 11.0 1.0 1.0
-1.0036302 0.13805929 -0.57980829 0.11855559796094894 0.056529734283685684 0.9913369417190552 255.0 12.0 1.0 1.0
-1.00501 0.12753592 -0.57982212 0.11855559796094894 0.056529734283685684 0.9913369417190552 255.0 12.0 1.0 1.0
-1.0127084 0.1379941 -0.54705322 0.0009791862685233355 0.9793156385421753 0.20233620703220367 255.0 13.0 1.0 1.0
-1.003589 0.12606047 -0.54140568 0.0009791862685233355 0.9793156385421753 0.20233620703220367 255.0 13.0 1.0 1.0
-1.0063735 0.13601188 -0.50746715 0.011762031354010105 0.9999196529388428 0.004724782891571522 255.0 14.0 1.0 1.0
-1.0148348 0.1263414 -0.51105642 0.011762031354010105 0.9999196529388428 0.004724782891571522 255.0 14.0 1.0 1.0
-0.9948765 0.13335595 -0.46738452 0.011460965499281883 0.9999120235443115 -0.006673639174550772 255.0 15.0 1.0 1.0
-0.97821325 0.12070937 -0.45895758 0.011761851608753204 0.9999042749404907 -0.0072755366563797 255.0 15.0 1.0 1.0
-1.0099181 -0.065569781 -0.43911105 0.0010996669298037887 0.999964714050293 -0.008324986323714256 255.0 16.0 1.0 1.0
-0.98355299 -0.074211061 -0.42798293 0.0010996669298037887 0.999964714050293 -0.008324986323714256 255.0 16.0 1.0 1.0
-0.98449135 -0.062921248 -0.39649579 -0.004075214266777039 0.9999378323554993 -0.010375035926699638 255.0 17.0 1.0 1.0
-0.98006892 -0.072957501 -0.39501852 -0.004075214266777039 0.9999378323554993 -0.010375035926699638 255.0 17.0 1.0 1.0
-1.0061507 -0.063118175 -0.37379766 -0.004075214266777039 0.9999378323554993 -0.010375035926699638 255.0 18.0 1.0 1.0
-1.0054266 -0.073657557 -0.37381214 -0.004075214266777039 0.9999378323554993 -0.010375035926699638 255.0 18.0 1.0 1.0
-0.98939234 -0.06106377 -0.33762729 0.0033121840097010136 0.9998961091041565 -0.014023507945239544 255.0 19.0 1.0 1.0
-0.98491466 -0.071154304 -0.33635202 -0.004074827767908573 0.9998429417610168 -0.01724686659872532 255.0 19.0 1.0 1.0
-0.97134387 -0.059133865 -0.30290619 0.009515567682683468 0.9990283846855164 -0.043032944202423096 255.0 20.0 1.0 1.0
-0.98590243 -0.070400357 -0.30767521 0.009515567682683468 0.9990283846855164 -0.043032944202423096 255.0 20.0 1.0 1.0
-0.96747333 -0.058087487 -0.2739743 0.014525859616696835 0.9992454648017883 -0.036021698266267776 255.0 21.0 1.0 1.0
-0.98216379 -0.069309339 -0.27834064 0.008527975529432297 0.9988702535629272 -0.04674721136689186 255.0 21.0 1.0 1.0
-0.98600304 -0.05837816 -0.25129327 0.002011252800002694 0.999428927898407 -0.03373037278652191 255.0 22.0 1.0 1.0
-0.98919851 -0.068977632 -0.25229383 0.002011252800002694 0.999428927898407 -0.03373037278652191 255.0 22.0 1.0 1.0
-0.98054671 -0.057403125 -0.22288255 0.02540103904902935 0.9956398010253906 -0.08975599706172943 255.0 23.0 1.0 1.0
-0.97599441 -0.067406081 -0.22201128 0.02540103904902935 0.9956398010253906 -0.08975599706172943 255.0 23.0 1.0 1.0
-0.97817522 -0.056785889 -0.19581576 0.02547677606344223 0.998608410358429 -0.046173956245183945 255.0 24.0 1.0 1.0
-0.98534781 -0.067571968 -0.19739819 0.02547677606344223 0.998608410358429 -0.046173956245183945 255.0 24.0 1.0 1.0
-0.96328455 -0.055278573 -0.16690873 0.035115066915750504 0.9962005615234375 -0.07969589531421661 255.0 25.0 1.0 1.0
-0.9626478 -0.065370597 -0.16692258 0.035115066915750504 0.9962005615234375 -0.07969589531421661 255.0 25.0 1.0 1.0
-0.96730447 -0.055036869 -0.14187783 0.025991372764110565 0.9958615899085999 -0.08708604425191879 255.0 26.0 1.0 1.0
-0.95087558 -0.064102948 -0.13957161 0.025991372764110565 0.9958615899085999 -0.08708604425191879 255.0 26.0 1.0 1.0
-0.95873976 -0.054246016 -0.1155882 0.013403743505477905 0.9993444681167603 -0.03362923860549927 255.0 27.0 1.0 1.0
-0.95019019 -0.063757256 -0.11464483 0.013403743505477905 0.9993444681167603 -0.03362923860549927 255.0 27.0 1.0 1.0
-0.94949186 -0.053255532 -0.089732498 0.029001018032431602 0.9974760413169861 -0.06481104344129562 255.0 28.0 1.0 1.0
-0.95682508 -0.063734017 -0.090498954 0.029001018032431602 0.9974760413169861 -0.06481104344129562 255.0 28.0 1.0 1.0
-0.96344358 -0.053906474 -0.066108942 0.028909968212246895 0.9943443536758423 -0.10219352692365646 255.0 29.0 1.0 1.0
-0.97476792 -0.064796597 -0.06694515 0.028909968212246895 0.9943443536758423 -0.10219352692365646 255.0 29.0 1.0 1.0
-0.93690646 -0.052120529 -0.040225983 0.02169771119952202 0.9970273375511169 -0.07392923533916473 255.0 30.0 1.0 1.0
-0.92833102 -0.061407171 -0.039895147 0.02169771119952202 0.9970273375511169 -0.07392923533916473 255.0 30.0 1.0 1.0
-0.95360106 -0.053086311 -0.016598988 0.02169771119952202 0.9970273375511169 -0.07392923533916473 255.0 31.0 1.0 1.0
-0.94500881 -0.062547103 -0.016471868 0.02169771119952202 0.9970273375511169 -0.07392923533916473 255.0 31.0 1.0 1.0
-0.94752169 0.12121067 0.0081948116 -0.01061813160777092 0.9981380105018616 -0.060063328593969345 255.0 32.0 1.0 1.0
-0.95270932 0.11173849 0.0082150465 -0.009284080006182194 0.9983079433441162 -0.057401832193136215 255.0 32.0 1.0 1.0
-0.96283621 0.12347341 0.033073917 0.0008073467761278152 0.9990187883377075 -0.04428151249885559 255.0 33.0 1.0 1.0
-0.94422162 0.11104847 0.032384772 0.0008073467761278152 0.9990187883377075 -0.04428151249885559 255.0 33.0 1.0 1.0
-0.93395114 0.11991384 0.056155629 -0.016269352287054062 0.9981421232223511 -0.05871603637933731 255.0 34.0 1.0 1.0
-0.93515372 0.11011915 0.056142714 -0.016269352287054062 0.9981421232223511 -0.05871603637933731 255.0 34.0 1.0 1.0
-0.95200211 0.12219233 0.081874363 -0.016290277242660522 0.9994258880615234 -0.029707755893468857 255.0 35.0 1.0 1.0
-0.92551869 0.10895655 0.079489738 -0.016290277242660522 0.9994258880615234 -0.029707755893468857 255.0 35.0 1.0 1.0
-0.94958144 0.12218716 0.10640535 -0.011496882885694504 0.9997314214706421 -0.02012009359896183 255.0 36.0 1.0 1.0
-0.9468593 0.11176389 0.10595166 -0.011496882885694504 0.9997314214706421 -0.02012009359896183 255.0 36.0 1.0 1.0
-0.94651473 0.12209696 0.13105029 -0.011474362574517727 0.9977731704711914 -0.06570310145616531 255.0 37.0 1.0 1.0
-0.93986923 0.11124158 0.12995155 -0.0012987846275791526 0.9989679455757141 -0.0454031378030777 255.0 37.0 1.0 1.0
-0.95065045 0.12310234 0.15676422 -0.0012987846275791526 0.9989679455757141 -0.0454031378030777 255.0 38.0 1.0 1.0
-0.94012582 0.11173871 0.15481855 -0.0012987846275791526 0.9989679455757141 -0.0454031378030777 255.0 38.0 1.0 1.0
-0.89561391 0.11644147 0.17171295 -0.009123184718191624 0.99801105260849 -0.06237564608454704 255.0 39.0 1.0 1.0
-0.91629583 0.10936974 0.17542854 -0.009123184718191624 0.99801105260849 -0.06237564608454704 255.0 39.0 1.0 1.0
-0.92188233 0.12014094 0.2018577 4.168987652519718e-05 0.9991999864578247 -0.03999250754714012 255.0 40.0 1.0 1.0
-0.94249862 0.11278773 0.2060809 4.168987652519718e-05 0.9991999864578247 -0.03999250754714012 255.0 40.0 1.0 1.0
-0.93939453 0.12304983 0.23174085 0.008165567182004452 0.9988734126091003 -0.0467473641037941 255.0 41.0 1.0 1.0
-0.90976685 0.10949429 0.22413728 0.008165567182004452 0.9988734126091003 -0.0467473641037941 255.0 41.0 1.0 1.0
-0.91389531 0.12033567 0.25105327 0.008168579079210758 0.9992417097091675 -0.038070376962423325 255.0 42.0 1.0 1.0
-0.94193083 0.11398629 0.25838703 0.008168579079210758 0.9992417097091675 -0.038070376962423325 255.0 42.0 1.0 1.0
-0.93348908 0.12370225 0.28339842 0.0039586881175637245 0.9999862909317017 -0.0034257308579981327 255.0 43.0 1.0 1.0
-0.95374882 0.11622121 0.28914106 0.0039586881175637245 0.9999862909317017 -0.0034257308579981327 255.0 43.0 1.0 1.0
-0.92186612 0.12295026 0.30697966 0.004333172924816608 0.9999802708625793 -0.004549236036837101 255.0 44.0 1.0 1.0
-0.90425038 0.11097403 0.30070665 0.004333172924816608 0.9999802708625793 -0.004549236036837101 255.0 44.0 1.0 1.0
-0.89838654 0.1205909 0.3263261 0.004333214834332466 0.9999899864196777 0.0010505208047106862 255.0 45.0 1.0 1.0
-0.92575365 0.1143894 0.33578545 0.004333214834332466 0.9999899864196777 0.0010505208047106862 255.0 45.0 1.0 1.0
-0.92257923 0.12477616 0.36344621 -0.008303176611661911 0.9983577728271484 -0.05668172985315323 255.0 46.0 1.0 1.0
-0.92383772 0.11509936 0.36343348 -0.008303176611661911 0.9983577728271484 -0.05668172985315323 255.0 46.0 1.0 1.0
-0.91237444 0.12417332 0.38858044 -0.008303176611661911 0.9983577728271484 -0.05668172985315323 255.0 47.0 1.0 1.0
-0.91362745 0.11460333 0.38856786 -0.008303176611661911 0.9983577728271484 -0.05668172985315323 255.0 47.0 1.0 1.0
-0.88234556 -0.054934449 0.40253583 0.010434580966830254 0.9985068440437317 -0.0536205917596817 247.0 48.0 1.0 1.0
-0.89625138 -0.065240823 0.40914553 0.010434580966830254 0.9985068440437317 -0.0536205917596817 250.0 48.0 1.0 1.0
-0.88874573 -0.056310926 0.43569574 0.02471880614757538 0.9982554316520691 -0.05361824855208397 247.0 49.0 1.0 1.0
-0.88452655 -0.065358102 0.43392706 0.02471880614757538 0.9982554316520691 -0.05361824855208397 247.0 49.0 1.0 1.0
-0.87966502 -0.056856155 0.46238986 -0.010935025289654732 0.9997780323028564 -0.018008515238761902 238.0 50.0 1.0 1.0
-0.86842549 -0.06527482 0.45680898 0.02471880614757538 0.9982554316520691 -0.05361824855208397 235.0 50.0 1.0 1.0
-0.8765527 -0.057928819 0.493166 -0.006666090339422226 0.9951837658882141 -0.09780022501945496 232.0 51.0 1.0 1.0
-0.87590235 -0.067114457 0.49315339 -0.006666090339422226 0.9951837658882141 -0.09780022501945496 238.0 51.0 1.0 1.0
-0.86878115 -0.058678962 0.52240342 -0.006666090339422226 0.9951837658882141 -0.09780022501945496 241.0 52.0 1.0 1.0
-0.86812377 -0.067783259 0.52239096 -0.006666090339422226 0.9951837658882141 -0.09780022501945496 229.0 52.0 1.0 1.0
-0.86315101 -0.06001227 0.55411893 -0.0013302171137183905 0.9915646910667419 -0.1296054571866989 229.0 53.0 1.0 1.0
-0.8624804 -0.069057211 0.55410653 -0.0013302171137183905 0.9915646910667419 -0.1296054571866989 232.0 53.0 1.0 1.0
-0.85267967 -0.061128747 0.58431143 0.004288199823349714 0.9885819554328918 -0.1506233513355255 226.0 54.0 1.0 1.0
-0.84212089 -0.069249608 0.57753366 0.00839708000421524 0.9879357218742371 -0.15463656187057495 217.0 54.0 1.0 1.0
-0.84404445 -0.06233963 0.61721694 0.006420668214559555 0.9954574108123779 -0.0949912816286087 226.0 55.0 1.0 1.0
-0.85623854 -0.072275594 0.62662446 0.012948447838425636 0.9947556853294373 -0.10145661979913712 232.0 55.0 1.0 1.0
-0.83687687 -0.064070769 0.65314901 0.015353888273239136 0.9970313310623169 -0.0754501074552536 208.0 56.0 1.0 1.0
-0.83616662 -0.072840661 0.65313691 0.015353888273239136 0.9970313310623169 -0.0754501074552536 211.0 56.0 1.0 1.0
-0.83385557 -0.066390894 0.69499511 0.0072138686664402485 0.9967356324195862 -0.08041160553693771 214.0 57.0 1.0 1.0
-0.83005601 -0.074852012 0.69242871 0.0072138686664402485 0.9967356324195862 -0.08041160553693771 217.0 57.0 1.0 1.0
-0.83137804 -0.068743832 0.74064857 0.007232101634144783 0.9992549419403076 -0.03790858015418053 217.0 58.0 1.0 1.0
-0.82764047 -0.077178039 0.73798269 0.0017231811070814729 0.9990559816360474 -0.043408509343862534 211.0 58.0 1.0 1.0
-0.81992996 -0.070895977 0.78245664 0.023172931745648384 0.9993953704833984 -0.025922046974301338 217.0 59.0 1.0 1.0
-0.82203805 -0.079769209 0.78519911 0.023172931745648384 0.9993953704833984 -0.025922046974301338 220.0 59.0 1.0 1.0
-0.81394929 -0.07418219 0.83384103 -0.028614094480872154 0.9984710812568665 -0.04729394614696503 226.0 60.0 1.0 1.0
-0.82149887 -0.083564743 0.84239376 0.020431824028491974 0.9995310306549072 -0.02280598133802414 229.0 60.0 1.0 1.0
-0.81759489 -0.07892631 0.9015618 0.007697965018451214 0.9998098015785217 -0.01792116090655327 235.0 61.0 1.0 1.0
-0.83281547 -0.089220382 0.91928118 0.007697965018451214 0.9998098015785217 -0.01792116090655327 247.0 61.0 1.0 1.0
-0.80806828 -0.082808323 0.96276253 0.00592490378767252 0.9999083876609802 -0.012173853814601898 244.0 62.0 1.0 1.0
-0.80973268 -0.09156701 0.96580654 -0.014503308571875095 0.9996225833892822 -0.023332864046096802 241.0 62.0 1.0 1.0
-0.81257373 -0.089271583 1.0512611 -0.003564149374142289 0.9993892908096313 -0.03476209193468094 253.0 63.0 1.0 1.0
-0.8238042 -0.099258855 1.0670305 -0.003564149374142289 0.9993892908096313 -0.03476209193468094 255.0 63.0 1.0 1.0
-0.46953383 0.094602734 -0.63001871 0.24857382476329803 -0.02948704920709133 0.9681639671325684 247.0 0.0 1.0 1.0
-0.46810725 0.089223169 -0.62684202 0.19550539553165436 -0.02319181151688099 0.9804283976554871 241.0 0.0 1.0 1.0
-0.48739678 0.094669923 -0.60078198 0.2296634018421173 0.1133151724934578 0.9666511416435242 229.0 1.0 1.0 1.0
-0.49838319 0.09138678 -0.61311674 0.23202022910118103 0.11291266232728958 0.9661352038383484 241.0 1.0 1.0 1.0
-0.52832639 0.099559985 -0.60234565 0.13314951956272125 0.020932592451572418 0.9908748269081116 226.0 2.0 1.0 1.0
-0.53195304 0.094480261 -0.60533571 0.2334643453359604 0.020536992698907852 0.9721484184265137 232.0 2.0 1.0 1.0
-0.57219309 0.10483983 -0.60509199 0.17856355011463165 0.07070890814065933 0.9813843965530396 229.0 3.0 1.0 1.0
-0.57598186 0.099305473 -0.60798216 0.17856355011463165 0.07070890814065933 0.9813843965530396 241.0 3.0 1.0 1.0
-0.60741806 0.10880344 -0.59807169 0.0786442682147026 -0.10135507583618164 0.9917369484901428 244.0 4.0 1.0 1.0
-0.60567933 0.10195553 -0.59529716 0.0786442682147026 -0.10135507583618164 0.9917369484901428 235.0 4.0 1.0 1.0
-0.64227289 0.11254163 -0.58996403 0.013148784637451172 -0.007349904160946608 0.9998864531517029 229.0 5.0 1.0 1.0
-0.64340538 0.10580345 -0.58997273 0.013148784637451172 -0.007349904160946608 0.9998864531517029 232.0 5.0 1.0 1.0
-0.68868625 0.11836395 -0.59120852 0.12016714364290237 -0.07592055946588516 0.989846408367157 244.0 6.0 1.0 1.0
-0.69590878 0.11210823 -0.59638321 0.12016714364290237 -0.07592055946588516 0.989846408367157 247.0 6.0 1.0 1.0
-0.72597253 0.12274407 -0.5832817 0.13259568810462952 -0.0029243638273328543 0.9911658763885498 247.0 7.0 1.0 1.0
-0.73340273 0.11610685 -0.58825755 0.0867202952504158 -0.05877465009689331 0.9944973587989807 250.0 7.0 1.0 1.0
-0.7723673 0.12871158 -0.58147395 0.1402718722820282 -0.11414284259080887 0.9835116863250732 255.0 8.0 1.0 1.0
-0.76731443 0.11962357 -0.57671642 0.1402718722820282 -0.11414284259080887 0.9835116863250732 247.0 8.0 1.0 1.0
-0.8156935 0.13395883 -0.57563627 0.1750638335943222 0.0849703773856163 0.9808835983276367 255.0 9.0 1.0 1.0
-0.81055039 0.12441047 -0.57107699 0.17825524508953094 0.07782173156738281 0.9809021353721619 253.0 9.0 1.0 1.0
-0.87554288 0.14229794 -0.57903606 0.1203632652759552 0.008561765775084496 0.9926930069923401 255.0 10.0 1.0 1.0
-0.87034994 0.13211294 -0.57467616 0.1203632652759552 0.008561765775084496 0.9926930069923401 255.0 10.0 1.0 1.0
-0.9023149 0.14497261 -0.55899137 0.18100379407405853 -0.13268926739692688 0.9744901657104492 253.0 11.0 1.0 1.0
-0.90377301 0.13550982 -0.55900359 0.11829811334609985 -0.08672133833169937 0.9891839623451233 253.0 11.0 1.0 1.0
-0.98340315 0.15633228 -0.56985813 0.4185488224029541 0.20865698158740997 0.8838999271392822 255.0 12.0 1.0 1.0
-0.99184483 0.14703511 -0.57384413 -0.0008975290111266077 -0.9972212314605713 0.07449190318584442 255.0 12.0 1.0 1.0
-1.0165936 0.16027327 -0.55080849 0.12505510449409485 0.9563553929328918 0.26409387588500977 255.0 13.0 1.0 1.0
-1.0182059 0.14961244 -0.55082226 0.0009791862685233355 0.9793156385421753 0.20233620703220367 255.0 13.0 1.0 1.0
-1.0245456 0.16037664 -0.51817369 0.011762031354010105 0.9999196529388428 0.004724782891571522 255.0 14.0 1.0 1.0
-0.99783039 0.14551152 -0.50388694 0.011762031354010105 0.9999196529388428 0.004724782891571522 255.0 14.0 1.0 1.0
-0.99547619 0.15472357 -0.46905398 0.011460965499281883 0.9999120235443115 -0.006673639174550772 255.0 15.0 1.0 1.0
-0.99344355 0.14376631 -0.46737945 0.011460965499281883 0.9999120235443115 -0.006673639174550772 255.0 15.0 1.0 1.0
-0.98176813 -0.043104339 -0.4263542 0.004486928228288889 0.9998759031295776 -0.015098966658115387 255.0 16.0 1.0 1.0
-0.99224687 -0.053989656 -0.43114325 0.004486928228288889 0.9998759031295776 -0.015098966658115387 255.0 16.0 1.0 1.0
-0.98561937 -0.042282145 -0.39647293 0.009547428227961063 0.9997924566268921 -0.017995381727814674 255.0 17.0 1.0 1.0
-0.99993944 -0.053402327 -0.40245232 -0.006749238818883896 0.9998536705970764 -0.01572289876639843 255.0 17.0 1.0 1.0
-0.97729909 -0.040767141 -0.36265197 0.009547428227961063 0.9997924566268921 -0.017995381727814674 255.0 18.0 1.0 1.0
-0.99553806 -0.051987916 -0.36961749 0.009547428227961063 0.9997924566268921 -0.017995381727814674 255.0 18.0 1.0 1.0
-0.98669565 -0.040165756 -0.33631501 0.0033121840097010136 0.9998961091041565 -0.014023507945239544 255.0 19.0 1.0 1.0
-0.989995 -0.050697606 -0.33761838 0.0033121840097010136 0.9998961091041565 -0.014023507945239544 255.0 19.0 1.0 1.0
-0.99529058 -0.039686441 -0.31001544 0.009515567682683468 0.9990283846855164 -0.043032944202423096 255.0 20.0 1.0 1.0
-0.97955573 -0.049341634 -0.30527484 0.009515567682683468 0.9990283846855164 -0.043032944202423096 255.0 20.0 1.0 1.0
-0.98388582 -0.038406648 -0.2783038 0.013666214421391487 0.99931800365448 -0.03430291265249252 255.0 21.0 1.0 1.0
-0.99111205 -0.049096949 -0.28049374 0.013666214421391487 0.99931800365448 -0.03430291265249252 255.0 21.0 1.0 1.0
-0.9909057 -0.037853446 -0.25225672 0.002011252800002694 0.999428927898407 -0.03373037278652191 255.0 22.0 1.0 1.0
-0.99044877 -0.048234835 -0.25227073 0.002011252800002694 0.999428927898407 -0.03373037278652191 255.0 22.0 1.0 1.0
-0.96986157 -0.036402326 -0.22020431 0.02540103904902935 0.9956398010253906 -0.08975599706172943 255.0 23.0 1.0 1.0
-0.97331768 -0.046751529 -0.22110328 0.02540103904902935 0.9956398010253906 -0.08975599706172943 255.0 23.0 1.0 1.0
-0.97133178 -0.035983663 -0.19422519 0.020031116902828217 0.9990824460983276 -0.037856124341487885 255.0 24.0 1.0 1.0
-0.98656803 -0.046908893 -0.19737522 0.045479774475097656 0.996773362159729 -0.06613892316818237 255.0 24.0 1.0 1.0
-0.97212905 -0.035368528 -0.16825068 0.011365881189703941 0.9958890080451965 -0.08986598998308182 255.0 25.0 1.0 1.0
-0.97563738 -0.045739122 -0.1689465 0.035115066915750504 0.9962005615234375 -0.07969589531421661 255.0 25.0 1.0 1.0
-0.95639932 -0.034325104 -0.14011599 0.0033769707661122084 0.9968096017837524 -0.0797446221113205 255.0 26.0 1.0 1.0
-0.97970349 -0.045451339 -0.14360905 0.035115066915750504 0.9962005615234375 -0.07969589531421661 255.0 26.0 1.0 1.0
-0.9636535 -0.03428394 -0.11604464 -0.001361226080916822 0.9994565844535828 -0.03293303772807121 255.0 27.0 1.0 1.0
-0.94736922 -0.043645926 -0.11414433 0.032552413642406464 0.998927891254425 -0.032915618270635605 255.0 27.0 1.0 1.0
-0.98225588 -0.034468673 -0.09272074 0.029001018032431602 0.9974760413169861 -0.06481104344129562 255.0 28.0 1.0 1.0
-0.94205618 -0.042938389 -0.088971578 0.029001018032431602 0.9974760413169861 -0.06481104344129562 255.0 28.0 1.0 1.0
-0.94842654 -0.033141069 -0.064990997 0.02167324721813202 0.9959032535552979 -0.08778965473175049 255.0 29.0 1.0 1.0
-0.97991556 -0.044535302 -0.067196548 0.028909968212246895 0.9943443536758423 -0.10219352692365646 255.0 29.0 1.0 1.0
-0.96177304 -0.033307396 -0.041236501 0.02169771119952202 0.9970273375511169 -0.07392923533916473 255.0 30.0 1.0 1.0
-0.94939178 -0.042841915 -0.040733952 0.02169771119952202 0.9970273375511169 -0.07392923533916473 255.0 30.0 1.0 1.0
-0.94652659 -0.032808345 -0.016436661 0.019548900425434113 0.9973804950714111 -0.06964243203401566 255.0 31.0 1.0 1.0
-0.95012349 -0.042907793 -0.016520331 0.019548900425434113 0.9973804950714111 -0.06964243203401566 255.0 31.0 1.0 1.0
-0.96852821 0.14457929 0.008413258 -0.01061813160777092 0.9981380105018616 -0.060063328593969345 255.0 32.0 1.0 1.0
-0.92244035 0.12784927 0.00799907 -0.01061813160777092 0.9981380105018616 -0.060063328593969345 255.0 32.0 1.0 1.0
-0.94028431 0.14067805 0.032415308 -0.009284080006182194 0.9983079433441162 -0.057401832193136215 255.0 33.0 1.0 1.0
-0.969423 0.13465585 0.033349313 -0.04307934269309044 0.996915876865387 -0.06559762358665466 255.0 33.0 1.0 1.0
-0.94704574 0.14182453 0.057121415 -0.009290085174143314 0.9989537596702576 -0.04477878659963608 255.0 34.0 1.0 1.0
-0.94847721 0.13189118 0.057108551 -0.016269352287054062 0.9981421232223511 -0.05871603637933731 255.0 34.0 1.0 1.0
-0.98472488 0.14741978 0.084942333 -0.016290277242660522 0.9994258880615234 -0.029707755893468857 255.0 35.0 1.0 1.0
-0.95463037 0.13271248 0.082218021 -0.016290277242660522 0.9994258880615234 -0.029707755893468857 255.0 35.0 1.0 1.0
-0.93896341 0.14088941 0.10554156 -0.011496882885694504 0.9997314214706421 -0.02012009359896183 255.0 36.0 1.0 1.0
-0.96795088 0.13487132 0.10861339 -0.011496882885694504 0.9997314214706421 -0.02012009359896183 255.0 36.0 1.0 1.0
-0.93200499 0.140149 0.12943894 -0.011474362574517727 0.9977731704711914 -0.06570310145616531 255.0 37.0 1.0 1.0
-0.92949557 0.12982674 0.12888338 -0.011474362574517727 0.9977731704711914 -0.06570310145616531 255.0 37.0 1.0 1.0
-0.95958692 0.14476724 0.15871482 -0.0012987846275791526 0.9989679455757141 -0.0454031378030777 255.0 38.0 1.0 1.0
-0.94541079 0.13251631 0.15612473 -0.0012987846275791526 0.9989679455757141 -0.0454031378030777 255.0 38.0 1.0 1.0
-0.92796266 0.14047335 0.17844093 -0.0012997814919799566 0.9997346997261047 -0.022993845865130424 255.0 39.0 1.0 1.0
-0.94105798 0.13237794 0.18066536 -0.008319282904267311 0.9992797374725342 -0.03702356666326523 255.0 39.0 1.0 1.0
-0.91917461 0.13944249 0.20187469 -0.02037913352251053 0.9989924430847168 -0.03998420014977455 255.0 40.0 1.0 1.0
-0.90897107 0.12816812 0.19932042 -0.02037913352251053 0.9989924430847168 -0.03998420014977455 255.0 40.0 1.0 1.0
-0.94430459 0.14388603 0.23365611 0.008165567182004452 0.9988734126091003 -0.0467473641037941 255.0 41.0 1.0 1.0
-0.93421745 0.1323503 0.23079658 0.008165567182004452 0.9988734126091003 -0.0467473641037941 255.0 41.0 1.0 1.0
-0.93026221 0.14238314 0.25631812 -0.008149798959493637 0.999951958656311 -0.005449090152978897 255.0 42.0 1.0 1.0
-0.94316769 0.13425295 0.25945419 0.008168579079210758 0.9992417097091675 -0.038070376962423325 255.0 42.0 1.0 1.0
-0.91934311 0.14150368 0.27996191 -0.0285885538905859 0.9995809197425842 -0.004547419026494026 255.0 43.0 1.0 1.0
-0.90560663 0.12969376 0.2753447 -0.0285885538905859 0.9995809197425842 -0.004547419026494026 255.0 43.0 1.0 1.0
-0.92660594 0.14341202 0.3095009 -0.0285885538905859 0.9995809197425842 -0.004547419026494026 255.0 44.0 1.0 1.0
-0.90549648 0.13045076 0.30197558 -0.0285885538905859 0.9995809197425842 -0.004547419026494026 255.0 44.0 1.0 1.0
-0.89195198 0.13882563 0.32498926 -0.018846606835722923 0.9998217821121216 0.001050344086252153 255.0 45.0 1.0 1.0
-0.90826052 0.13162225 0.33038992 -0.018846606835722923 0.9998217821121216 0.001050344086252153 255.0 45.0 1.0 1.0
-0.90135992 0.14121805 0.35619807 -0.018845049664378166 0.9997392296791077 -0.01289658434689045 255.0 46.0 1.0 1.0
-0.90279162 0.13176224 0.35618585 -0.018845049664378166 0.9997392296791077 -0.01289658434689045 255.0 46.0 1.0 1.0
-0.90229696 0.1421348 0.38549 -0.040688153356313705 0.997565507888794 -0.0566367506980896 255.0 47.0 1.0 1.0
-0.87456173 0.12839742 0.37304986 -0.040688153356313705 0.997565507888794 -0.0566367506980896 255.0 47.0 1.0 1.0
-0.88694692 -0.036568988 0.40421164 0.02470131777226925 0.9975491166114807 -0.0654638409614563 247.0 48.0 1.0 1.0
-0.89379108 -0.04624179 0.40751052 0.010434580966830254 0.9985068440437317 -0.0536205917596817 250.0 48.0 1.0 1.0
-0.88973558 -0.037659451 0.435716 0.02471880614757538 0.9982554316520691 -0.05361824855208397 247.0 49.0 1.0 1.0
-0.87852913 -0.046412591 0.43043539 0.02471880614757538 0.9982554316520691 -0.05361824855208397 244.0 49.0 1.0 1.0
-0.88774735 -0.038704548 0.46612233 -0.010935025289654732 0.9997780323028564 -0.018008515238761902 244.0 50.0 1.0 1.0
-0.87668318 -0.047431484 0.46054131 -0.010935025289654732 0.9997780323028564 -0.018008515238761902 241.0 50.0 1.0 1.0
-0.8845486 -0.039847225 0.49709848 -0.010879786685109138 0.9947277307510376 -0.10197214782238007 241.0 51.0 1.0 1.0
-0.88408709 -0.049117044 0.49708599 -0.010879786685109138 0.9947277307510376 -0.10197214782238007 241.0 51.0 1.0 1.0
-0.8698228 -0.040443614 0.52242327 0.007217729929834604 0.9931742548942566 -0.11641639471054077 235.0 52.0 1.0 1.0
-0.86250508 -0.049167093 0.51829922 -0.006666090339422226 0.9951837658882141 -0.09780022501945496 229.0 52.0 1.0 1.0
-0.85748976 -0.041565474 0.54982793 -0.013241030275821686 0.9906959533691406 -0.1354478895664215 223.0 53.0 1.0 1.0
-0.8603763 -0.05075122 0.55197108 -0.0013302171137183905 0.9915646910667419 -0.1296054571866989 226.0 53.0 1.0 1.0
-0.85047543 -0.043060448 0.58207566 0.004288199823349714 0.9885819554328918 -0.1506233513355255 223.0 54.0 1.0 1.0
-0.85987556 -0.052581187 0.58882934 0.004288199823349714 0.9885819554328918 -0.1506233513355255 229.0 54.0 1.0 1.0
-0.84839463 -0.044790715 0.6195913 0.006420668214559555 0.9954574108123779 -0.0949912816286087 223.0 55.0 1.0 1.0
-0.84788501 -0.053682033 0.61957932 0.006420668214559555 0.9954574108123779 -0.0949912816286087 220.0 55.0 1.0 1.0
-0.83488196 -0.046323404 0.65071344 -0.0026207277551293373 0.9983389973640442 -0.057554323226213455 214.0 56.0 1.0 1.0
-0.82490355 -0.054446962 0.64333761 -0.0026207277551293373 0.9983389973640442 -0.057554323226213455 208.0 56.0 1.0 1.0
-0.84120798 -0.049242336 0.70012307 0.0072138686664402485 0.9967356324195862 -0.08041160553693771 226.0 57.0 1.0 1.0
-0.83758241 -0.057846006 0.69755679 0.0072138686664402485 0.9967356324195862 -0.08041160553693771 220.0 57.0 1.0 1.0
-0.81769818 -0.05036125 0.72739792 -0.016396334394812584 0.9997633099555969 -0.014295762404799461 208.0 58.0 1.0 1.0
-0.83205837 -0.060011066 0.7406559 -0.016396334394812584 0.9997633099555969 -0.014295762404799461 214.0 58.0 1.0 1.0
-0.82702053 -0.054054637 0.78798437 -0.014970239251852036 0.9997370839118958 -0.017370201647281647 220.0 59.0 1.0 1.0
-0.82641745 -0.062722139 0.78797269 -0.014970239251852036 0.9997370839118958 -0.017370201647281647 217.0 59.0 1.0 1.0
-0.80973059 -0.056692187 0.82814991 -0.010484594851732254 0.9997290372848511 -0.020782997831702232 226.0 60.0 1.0 1.0
-0.8146866 -0.065629832 0.8338483 -0.010484594851732254 0.9997290372848511 -0.020782997831702232 223.0 60.0 1.0 1.0
-0.82712626 -0.062359471 0.91044682 -0.010480031371116638 0.9992938041687012 -0.03608589619398117 241.0 61.0 1.0 1.0
-0.82375228 -0.070796989 0.90747976 -0.010480031371116638 0.9992938041687012 -0.03608589619398117 235.0 61.0 1.0 1.0
-0.82762605 -0.067297354 0.98417187 0.00592490378767252 0.9999083876609802 -0.012173853814601898 253.0 62.0 1.0 1.0
-0.83459795 -0.076681189 0.99332732 0.00592490378767252 0.9999083876609802 -0.012173853814601898 255.0 62.0 1.0 1.0
-0.81670296 -0.072411969 1.0544366 -0.001698888372629881 0.9995168447494507 -0.03103508986532688 255.0 63.0 1.0 1.0
-0.82569236 -0.081943914 1.0670502 -0.001698888372629881 0.9995168447494507 -0.03103508986532688 255.0 63.0 1.0 1.0
-0.45565701 0.10178454 -0.61409754 0.211440309882164 -0.0323338620364666 0.9768558740615845 244.0 0.0 1.0 1.0
-0.46142697 0.098004244 -0.62046957 0.24857382476329803 -0.02948704920709133 0.9681639671325684 235.0 0.0 1.0 1.0
-0.49281582 0.10646673 -0.61002105 0.2101759910583496 0.1138266995549202 0.9710147380828857 235.0 1.0 1.0 1.0
-0.48140189 0.09874244 -0.59461749 0.2101759910583496 0.1138266995549202 0.9710147380828857 229.0 1.0 1.0 1.0
-0.53398114 0.1122426 -0.61128664 0.13314951956272125 0.020932592451572418 0.9908748269081116 235.0 2.0 1.0 1.0
-0.53250223 0.1061199 -0.60831082 0.13314951956272125 0.020932592451572418 0.9908748269081116 235.0 2.0 1.0 1.0
-0.56718516 0.11624583 -0.60220098 0.17856355011463165 0.07070890814065933 0.9813843965530396 235.0 3.0 1.0 1.0
-0.57652932 0.11187381 -0.6108557 0.17856355011463165 0.07070890814065933 0.9813843965530396 235.0 3.0 1.0 1.0
-0.6106717 0.12262984 -0.60362762 0.0790146067738533 -0.03049110434949398 0.9964070320129395 241.0 4.0 1.0 1.0
-0.60908812 0.11568801 -0.60085303 0.0790146067738533 -0.03049110434949398 0.9964070320129395 235.0 4.0 1.0 1.0
-0.62815899 0.12368334 -0.57922363 0.013140604831278324 -0.03602384403347969 0.9992644786834717 229.0 5.0 1.0 1.0
-0.64107853 0.11925656 -0.58996242 0.013148784637451172 -0.007349904160946608 0.9998864531517029 232.0 5.0 1.0 1.0
-0.68308717 0.1321841 -0.58861482 0.1197291687130928 -0.11400935798883438 0.9862387180328369 235.0 6.0 1.0 1.0
-0.6874283 0.1255651 -0.59120649 0.12016714364290237 -0.07592055946588516 0.989846408367157 241.0 6.0 1.0 1.0
-0.72635353 0.13850901 -0.58575267 0.16551972925662994 -0.09224669635295868 0.9818826913833618 250.0 7.0 1.0 1.0
-0.71849293 0.12922826 -0.57831353 0.13259568810462952 -0.0029243638273328543 0.9911658763885498 238.0 7.0 1.0 1.0
-0.75374794 0.1418974 -0.56954157 0.07733098417520523 -0.01766909472644329 0.9968488812446594 241.0 8.0 1.0 1.0
-0.76150775 0.13510984 -0.57431954 0.1745133399963379 -0.11599169671535492 0.977799117565155 247.0 8.0 1.0 1.0
-0.81596684 0.1516133 -0.57790744 0.1750638335943222 0.0849703773856163 0.9808835983276367 255.0 9.0 1.0 1.0
-0.81426501 0.14249001 -0.57563329 0.1750638335943222 0.0849703773856163 0.9808835983276367 255.0 9.0 1.0 1.0
-0.86251581 0.15879047 -0.57246363 0.1353529989719391 0.0237971693277359 0.9905116558074951 255.0 10.0 1.0 1.0
-0.87072277 0.15088502 -0.57684678 0.1353529989719391 0.0237971693277359 0.9905116558074951 255.0 10.0 1.0 1.0
-0.93268657 0.16994551 -0.57984084 0.18168127536773682 -0.10118824988603592 0.9781375527381897 255.0 11.0 1.0 1.0
-0.91085756 0.1561363 -0.56524736 0.18168127536773682 -0.10118824988603592 0.9781375527381897 255.0 11.0 1.0 1.0
-0.98677683 0.17812721 -0.57381326 0.17857806384563446 0.23593902587890625 0.9552186131477356 255.0 12.0 1.0 1.0
-0.9920007 0.16835798 -0.57581276 0.1728154867887497 0.23618564009666443 0.9562171101570129 255.0 12.0 1.0 1.0
-1.0165149 0.18215285 -0.55267745 0.04970147833228111 0.9627310037612915 0.26585447788238525 255.0 13.0 1.0 1.0
-1.0044436 0.16915438 -0.54514283 0.04970147833228111 0.9627310037612915 0.26585447788238525 255.0 13.0 1.0 1.0
-1.0033741 0.17867234 -0.50921816 0.0009745244751684368 0.999988317489624 0.0047251079231500626 255.0 14.0 1.0 1.0
-1.0228282 0.17109509 -0.51816911 0.0009745244751684368 0.999988317489624 0.0047251079231500626 255.0 14.0 1.0 1.0
-1.0063293 0.17806578 -0.47578806 0.00577546376734972 0.9999609589576721 -0.006673966068774462 255.0 15.0 1.0 1.0
-0.979509 0.16276667 -0.46229762 0.00577546376734972 0.9999609589576721 -0.006673966068774462 255.0 15.0 1.0 1.0
-0.98248219 -0.022527168 -0.42633227 -0.006750014610588551 0.9999685883522034 -0.004149843938648701 255.0 16.0 1.0 1.0
-1.0041897 -0.033560846 -0.43589571 0.0026833834126591682 0.9998824000358582 -0.015099064446985722 255.0 16.0 1.0 1.0
-0.98631465 -0.021623798 -0.39645094 0.003324388526380062 0.9998324513435364 -0.017996100708842278 255.0 17.0 1.0 1.0
-0.99344534 -0.032199595 -0.3994472 0.003324388526380062 0.9998324513435364 -0.017996100708842278 255.0 17.0 1.0 1.0
-0.98546326 -0.02044042 -0.3654106 0.0032747359946370125 0.9998353719711304 -0.01784716732800007 255.0 18.0 1.0 1.0
-0.98893625 -0.030883241 -0.36681452 0.0032747359946370125 0.9998353719711304 -0.01784716732800007 255.0 18.0 1.0 1.0
-0.9949165 -0.01963562 -0.3388716 0.009514995850622654 0.9989683628082275 -0.0444042831659317 255.0 19.0 1.0 1.0
-0.99086416 -0.029944414 -0.33759609 0.009514995850622654 0.9989683628082275 -0.0444042831659317 255.0 19.0 1.0 1.0
-0.97301543 -0.018385734 -0.30286214 0.008530108258128166 0.9991200566291809 -0.04106422886252403 255.0 20.0 1.0 1.0
-0.97276276 -0.028581062 -0.30287567 0.008530108258128166 0.9991200566291809 -0.04106422886252403 255.0 20.0 1.0 1.0
-0.97680026 -0.017641932 -0.27610621 0.010868320241570473 0.9993523955345154 -0.03430408984422684 255.0 21.0 1.0 1.0
-0.97655553 -0.027877018 -0.27611977 0.010868320241570473 0.9993523955345154 -0.03430408984422684 255.0 21.0 1.0 1.0
-0.98762751 -0.017014369 -0.2512486 0.0040412722155451775 0.9998963475227356 -0.013823865912854671 255.0 22.0 1.0 1.0
-0.98351407 -0.027254676 -0.25027615 0.010868320241570473 0.9993523955345154 -0.03430408984422684 255.0 22.0 1.0 1.0
-0.97043282 -0.01607134 -0.22018284 0.004025334492325783 0.9959530234336853 -0.08978423476219177 255.0 23.0 1.0 1.0
-0.96240687 -0.026026804 -0.21842599 0.004025334492325783 0.9959530234336853 -0.08978423476219177 255.0 23.0 1.0 1.0
-0.96797138 -0.015557399 -0.19341975 -0.0016136311460286379 0.9980549216270447 -0.06232035532593727 255.0 24.0 1.0 1.0
-0.9755922 -0.025910009 -0.19500116 -0.005515760742127895 0.9977906942367554 -0.0662064179778099 255.0 24.0 1.0 1.0
-0.96479487 -0.014865732 -0.16686529 0.003376594977453351 0.9966986775398254 -0.08111957460641861 255.0 25.0 1.0 1.0
-0.96064132 -0.024872173 -0.1661967 0.003376594977453351 0.9966986775398254 -0.08111957460641861 255.0 25.0 1.0 1.0
-0.96879995 -0.014454746 -0.1418342 0.0033769707661122084 0.9968096017837524 -0.0797446221113205 255.0 26.0 1.0 1.0
-0.95672148 -0.02430186 -0.14010817 0.0033769707661122084 0.9968096017837524 -0.0797446221113205 255.0 26.0 1.0 1.0
-0.96020824 -0.014022129 -0.11554504 0.029001018032431602 0.9974760413169861 -0.06481104344129562 255.0 27.0 1.0 1.0
-0.97191465 -0.024385277 -0.11699352 -0.001361226080916822 0.9994565844535828 -0.03293303772807121 255.0 27.0 1.0 1.0
-0.94694394 -0.013361517 -0.089313678 0.029001018032431602 0.9974760413169861 -0.06481104344129562 255.0 28.0 1.0 1.0
-0.94276726 -0.023185421 -0.088950619 0.029001018032431602 0.9974760413169861 -0.06481104344129562 255.0 28.0 1.0 1.0
-0.96888143 -0.013540374 -0.066339441 0.02167324721813202 0.9959032535552979 -0.08778965473175049 255.0 29.0 1.0 1.0
-0.9726724 -0.023791431 -0.066626817 0.02167324721813202 0.9959032535552979 -0.08778965473175049 255.0 29.0 1.0 1.0
-0.95428503 -0.013031799 -0.040871527 0.02169771119952202 0.9970273375511169 -0.07392923533916473 255.0 30.0 1.0 1.0
-0.94210768 -0.022739425 -0.040368944 0.02169771119952202 0.9970273375511169 -0.07392923533916473 255.0 30.0 1.0 1.0
-0.92702764 -0.012684114 -0.016065095 0.019548900425434113 0.9973804950714111 -0.06964243203401566 255.0 31.0 1.0 1.0
-0.92684114 -0.022398582 -0.016077958 0.019548900425434113 0.9973804950714111 -0.06964243203401566 255.0 31.0 1.0 1.0
-0.96924621 0.16551922 0.0084640142 -0.01061813160777092 0.9981380105018616 -0.060063328593969345 255.0 32.0 1.0 1.0
-0.95907432 0.15346126 0.0083505735 -0.01061813160777092 0.9981380105018616 -0.060063328593969345 255.0 32.0 1.0 1.0
-0.94108731 0.16102867 0.032567311 -0.009284080006182194 0.9983079433441162 -0.057401832193136215 255.0 33.0 1.0 1.0
-0.94271976 0.15115729 0.032554757 -0.009284080006182194 0.9983079433441162 -0.057401832193136215 255.0 33.0 1.0 1.0
-0.92813832 0.15895437 0.056189351 -0.009290085174143314 0.9989537596702576 -0.04477878659963608 255.0 34.0 1.0 1.0
-0.97312033 0.15616232 0.05878561 -0.009290085174143314 0.9989537596702576 -0.04477878659963608 255.0 34.0 1.0 1.0
-0.95000535 0.16265918 0.082247838 -0.016290277242660522 0.9994258880615234 -0.029707755893468857 255.0 35.0 1.0 1.0
-0.92804199 0.14891446 0.080201469 -0.016290277242660522 0.9994258880615234 -0.029707755893468857 255.0 35.0 1.0 1.0
-0.94757575 0.16255331 0.10688049 -0.016290277242660522 0.9994258880615234 -0.029707755893468857 255.0 36.0 1.0 1.0
-0.95315033 0.15324333 0.10730859 -0.016290277242660522 0.9994258880615234 -0.029707755893468857 255.0 36.0 1.0 1.0
-0.92497188 0.15898599 0.1289123 -0.011474362574517727 0.9977731704711914 -0.06570310145616531 255.0 37.0 1.0 1.0
-0.95788723 0.15431403 0.13324395 -0.011474362574517727 0.9977731704711914 -0.06570310145616531 255.0 37.0 1.0 1.0
-0.94468421 0.16284449 0.15679859 -0.0012987846275791526 0.9989679455757141 -0.0454031378030777 255.0 38.0 1.0 1.0
-0.93464506 0.15104946 0.15485294 -0.0012987846275791526 0.9989679455757141 -0.0454031378030777 255.0 38.0 1.0 1.0
-0.94031906 0.16256893 0.18144047 -0.0012997814919799566 0.9997346997261047 -0.022993845865130424 255.0 39.0 1.0 1.0
-0.96136707 0.15584165 0.18515669 -0.0012997814919799566 0.9997346997261047 -0.022993845865130424 255.0 39.0 1.0 1.0
-0.92376739 0.16001415 0.20358561 -0.008298611268401146 0.9967968463897705 -0.07954458892345428 255.0 40.0 1.0 1.0
-0.91381598 0.1484473 0.20103125 -0.008298611268401146 0.9967968463897705 -0.07954458892345428 255.0 40.0 1.0 1.0
-0.91812235 0.15966691 0.22797848 -0.008298611268401146 0.9967968463897705 -0.07954458892345428 255.0 41.0 1.0 1.0
-0.91207385 0.14878681 0.22606829 0.008165567182004452 0.9988734126091003 -0.0467473641037941 255.0 41.0 1.0 1.0
-0.93469054 0.16318096 0.25843382 -0.008149798959493637 0.999951958656311 -0.005449090152978897 255.0 42.0 1.0 1.0
-0.94396752 0.15462074 0.26052064 -0.008149798959493637 0.999951958656311 -0.005449090152978897 255.0 42.0 1.0 1.0
-0.91618657 0.16074879 0.27997798 -0.0285885538905859 0.9995809197425842 -0.004547419026494026 255.0 43.0 1.0 1.0
-0.91404086 0.1505165 0.27881449 -0.0285885538905859 0.9995809197425842 -0.004547419026494026 255.0 43.0 1.0 1.0
-0.91966569 0.16215138 0.30826485 -0.034279271960258484 0.9993889331817627 0.00684587936848402 255.0 44.0 1.0 1.0
-0.92881119 0.15374133 0.31075701 -0.034279271960258484 0.9993889331817627 0.00684587936848402 255.0 44.0 1.0 1.0
-0.9222163 0.16339515 0.33718452 -0.018846606835722923 0.9998217821121216 0.001050344086252153 255.0 45.0 1.0 1.0
-0.92759216 0.15433674 0.33852553 -0.018846606835722923 0.9998217821121216 0.001050344086252153 255.0 45.0 1.0 1.0
-0.91655743 0.16334994 0.36347911 -0.018845049664378166 0.9997392296791077 -0.01289658434689045 255.0 46.0 1.0 1.0
-0.90351671 0.1512785 0.35765478 -0.018845049664378166 0.9997392296791077 -0.01289658434689045 255.0 46.0 1.0 1.0
-0.90638548 0.16232131 0.38861287 -0.040688153356313705 0.997565507888794 -0.0566367506980896 255.0 47.0 1.0 1.0
-0.89713299 0.1509814 0.3839401 -0.040688153356313705 0.997565507888794 -0.0566367506980896 255.0 47.0 1.0 1.0
-0.89480537 -0.018110219 0.40754277 0.010434580966830254 0.9985068440437317 -0.0536205917596817 247.0 48.0 1.0 1.0
-0.89093024 -0.027375501 0.40587455 -0.005887349136173725 0.9978363513946533 -0.06548269093036652 247.0 48.0 1.0 1.0
-0.88314849 -0.018836955 0.43222323 -0.005899515468627214 0.9998984336853027 -0.012973862700164318 244.0 49.0 1.0 1.0
-0.89009029 -0.028323324 0.43572319 -0.005899515468627214 0.9998984336853027 -0.012973862700164318 255.0 49.0 1.0 1.0
-0.8812834 -0.019915976 0.46242926 -0.010935025289654732 0.9997780323028564 -0.018008515238761902 238.0 50.0 1.0 1.0
-0.88457161 -0.029270519 0.46427327 -0.010935025289654732 0.9997780323028564 -0.018008515238761902 244.0 50.0 1.0 1.0
-0.86426568 -0.020777607 0.48537993 -0.010879786685109138 0.9947277307510376 -0.10197214782238007 232.0 51.0 1.0 1.0
-0.87446535 -0.030199783 0.49123681 -0.010879786685109138 0.9947277307510376 -0.10197214782238007 232.0 51.0 1.0 1.0
-0.8704825 -0.022190353 0.5224424 -0.007944300770759583 0.9931687712669373 -0.11641574651002884 235.0 52.0 1.0 1.0
-0.85649133 -0.030816801 0.51420635 -0.007944300770759583 0.9931687712669373 -0.11641574651002884 229.0 52.0 1.0 1.0
-0.86827987 -0.023849851 0.5563131 0.0008399710641242564 0.9880717992782593 -0.15399165451526642 238.0 53.0 1.0 1.0
-0.8713547 -0.033079308 0.55845642 -0.013241030275821686 0.9906959533691406 -0.1354478895664215 235.0 53.0 1.0 1.0
-0.85449469 -0.025309598 0.58434969 0.004288199823349714 0.9885819554328918 -0.1506233513355255 220.0 54.0 1.0 1.0
-0.83108211 -0.033332918 0.56855059 0.004288199823349714 0.9885819554328918 -0.1506233513355255 199.0 54.0 1.0 1.0
-0.8394531 -0.026672561 0.6125446 0.004323980771005154 0.9968307018280029 -0.0794343426823616 217.0 55.0 1.0 1.0
-0.83913356 -0.035471082 0.61253291 0.004323980771005154 0.9968307018280029 -0.0794343426823616 214.0 55.0 1.0 1.0
-0.84198183 -0.029017024 0.6556415 -0.0026207277551293373 0.9983389973640442 -0.057554323226213455 223.0 56.0 1.0 1.0
-0.84479314 -0.037985083 0.65808451 -0.0026207277551293373 0.9983389973640442 -0.057554323226213455 214.0 56.0 1.0 1.0
-0.8235985 -0.03088594 0.68481469 0.0072138686664402485 0.9967356324195862 -0.08041160553693771 208.0 57.0 1.0 1.0
-0.83246034 -0.039963536 0.69246656 0.0072138686664402485 0.9967356324195862 -0.08041160553693771 214.0 57.0 1.0 1.0
-0.83352292 -0.033803169 0.74068618 -0.002830751705914736 0.9991332292556763 -0.04153024032711983 214.0 58.0 1.0 1.0
-0.83910835 -0.042846289 0.74598253 -0.002830751705914736 0.9991332292556763 -0.04153024032711983 220.0 58.0 1.0 1.0
-0.81058276 -0.035914086 0.77147561 -0.014922116883099079 0.9965234994888306 -0.08196394890546799 208.0 59.0 1.0 1.0
-0.83333898 -0.045686513 0.79350024 -0.014970239251852036 0.9997370839118958 -0.017370201647281647 226.0 59.0 1.0 1.0
-0.81633264 -0.039962538 0.83387804 -0.009996864013373852 0.9997439980506897 -0.020295418798923492 226.0 60.0 1.0 1.0
-0.82706481 -0.049186882 0.84528655 -0.009996864013373852 0.9997439980506897 -0.020295418798923492 232.0 60.0 1.0 1.0
-0.81747884 -0.044399898 0.89864391 -0.0048663560301065445 0.999923050403595 -0.011407449841499329 241.0 61.0 1.0 1.0
-0.83580786 -0.054193497 0.91931987 -0.0048663560301065445 0.999923050403595 -0.011407449841499329 253.0 61.0 1.0 1.0
-0.8211171 -0.049444284 0.97502303 -0.003724377602338791 0.9997550249099731 -0.02182033844292164 250.0 62.0 1.0 1.0
-0.82313967 -0.058233768 0.9780674 0.00592490378767252 0.9999083876609802 -0.012173853814601898 250.0 62.0 1.0 1.0
-0.82048231 -0.055418421 1.0576116 -0.001698888372629881 0.9995168447494507 -0.03103508986532688 255.0 63.0 1.0 1.0
-0.81741935 -0.063826613 1.0544437 -0.001698888372629881 0.9995168447494507 -0.03103508986532688 255.0 63.0 1.0 1.0
-0.44874927 0.11015403 -0.60772604 0.235077902674675 -0.05717466026544571 0.9702935218811035 235.0 0.0 1.0 1.0
-0.45930389 0.10764619 -0.62046361 0.211440309882164 -0.0323338620364666 0.9768558740615845 247.0 0.0 1.0 1.0
-0.49050841 0.11676433 -0.6100145 0.2101759910583496 0.1138266995549202 0.9710147380828857 232.0 1.0 1.0 1.0
-0.48920634 0.11105319 -0.60693896 0.2101759910583496 0.1138266995549202 0.9710147380828857 235.0 1.0 1.0 1.0
-0.52894723 0.12280063 -0.60829645 0.13314951956272125 0.020932592451572418 0.9908748269081116 229.0 2.0 1.0 1.0
-0.53279585 0.11782245 -0.61128622 0.13314951956272125 0.020932592451572418 0.9908748269081116 232.0 2.0 1.0 1.0
-0.56465638 0.12809949 -0.60219294 0.1786040961742401 0.06743669509887695 0.9816072583198547 235.0 3.0 1.0 1.0
-0.54968756 0.11867333 -0.58490628 0.1786040961742401 0.06743669509887695 0.9816072583198547 223.0 3.0 1.0 1.0
-0.59677887 0.13290143 -0.59248829 0.0790146067738533 -0.03049110434949398 0.9964070320129395 226.0 4.0 1.0 1.0
-0.60093874 0.12723245 -0.59527868 0.0790146067738533 -0.03049110434949398 0.9964070320129395 235.0 4.0 1.0 1.0
-0.64285457 0.14060675 -0.59530938 0.15114784240722656 -0.1005019098520279 0.9833889007568359 235.0 5.0 1.0 1.0
-0.63265926 0.1314539 -0.58458757 0.0786442682147026 -0.10135507583618164 0.9917369484901428 229.0 5.0 1.0 1.0
-0.6712392 0.1445384 -0.58085686 0.16572259366512299 -0.00724890036508441 0.9861457943916321 235.0 6.0 1.0 1.0
-0.67869157 0.13871533 -0.58603072 0.16572259366512299 -0.00724890036508441 0.9861457943916321 238.0 6.0 1.0 1.0
-0.71718705 0.15239146 -0.58077568 0.16575512290000916 -0.07541684806346893 0.9832790493965149 241.0 7.0 1.0 1.0
-0.71565837 0.14424904 -0.5783022 0.16551972925662994 -0.09224669635295868 0.9818826913833618 241.0 7.0 1.0 1.0
-0.76321524 0.1602886 -0.57906502 0.07733098417520523 -0.01766909472644329 0.9968488812446594 255.0 8.0 1.0 1.0
-0.74278796 0.14790207 -0.56238788 0.07733098417520523 -0.01766909472644329 0.9968488812446594 241.0 8.0 1.0 1.0
-0.79013759 0.16401084 -0.56189948 0.12031644582748413 0.029173796996474266 0.9923068284988403 247.0 9.0 1.0 1.0
-0.81113172 0.1595137 -0.57562 0.12031644582748413 0.029173796996474266 0.9923068284988403 255.0 9.0 1.0 1.0
-0.86231184 0.1774957 -0.57463533 0.16455280780792236 0.023690788075327873 0.9860836863517761 255.0 10.0 1.0 1.0
-0.86082447 0.16781026 -0.57246083 0.1353529989719391 0.0237971693277359 0.9905116558074951 255.0 10.0 1.0 1.0
-0.90554291 0.18467949 -0.56522024 0.15513552725315094 -0.10165497660636902 0.9826490879058838 255.0 11.0 1.0 1.0
-0.93087459 0.17969964 -0.57983756 0.15513552725315094 -0.10165497660636902 0.9826490879058838 255.0 11.0 1.0 1.0
-0.97945559 0.19807017 -0.57181054 0.22120173275470734 0.1935776174068451 0.9558229446411133 255.0 12.0 1.0 1.0
-0.98146564 0.18779691 -0.57182342 0.22120173275470734 0.1935776174068451 0.9558229446411133 255.0 12.0 1.0 1.0
-1.0055894 0.20201844 -0.54888648 -0.009188298135995865 0.9328537583351135 0.3601381182670593 255.0 13.0 1.0 1.0
-1.0249658 0.19475694 -0.55833447 0.04970147833228111 0.9627310037612915 0.26585447788238525 255.0 13.0 1.0 1.0
-1.0064585 0.20105061 -0.51277602 -0.009849006310105324 0.9999329447746277 -0.0060986424796283245 255.0 14.0 1.0 1.0
-0.98740023 0.18651634 -0.50206459 -0.009849006310105324 0.9999329447746277 -0.0060986424796283245 255.0 14.0 1.0 1.0
-0.99884874 0.19840224 -0.47408324 0.0009744710405357182 0.9999336004257202 -0.011474615894258022 255.0 15.0 1.0 1.0
-1.0044272 0.18859303 -0.47578424 0.0009744710405357182 0.9999336004257202 -0.011474615894258022 255.0 15.0 1.0 1.0
-0.99744391 -0.0019724492 -0.43267712 0.0026833834126591682 0.9998824000358582 -0.015099064446985722 255.0 16.0 1.0 1.0
-1.0083685 -0.012563705 -0.43746537 0.0026833834126591682 0.9998824000358582 -0.015099064446985722 255.0 16.0 1.0 1.0
-0.99028844 -0.00096025824 -0.39792091 0.003324388526380062 0.9998324513435364 -0.017996100708842278 255.0 17.0 1.0 1.0
-1.0013503 -0.011467142 -0.40240794 0.003324388526380062 0.9998324513435364 -0.017996100708842278 255.0 17.0 1.0 1.0
-0.99695206 0.00020987414 -0.36955976 0.0032747359946370125 0.9998353719711304 -0.01784716732800007 255.0 18.0 1.0 1.0
-0.98564065 -0.010118186 -0.36540294 0.0032747359946370125 0.9998353719711304 -0.01784716732800007 255.0 18.0 1.0 1.0
-0.99134707 0.0012097852 -0.33756107 0.009514995850622654 0.9989683628082275 -0.0444042831659317 255.0 19.0 1.0 1.0
-0.97993922 -0.0090700472 -0.33370689 0.009514995850622654 0.9989683628082275 -0.0444042831659317 255.0 19.0 1.0 1.0
-0.99230719 0.0020392502 -0.3087835 0.012462655082345009 0.998314619064331 -0.05667923390865326 255.0 20.0 1.0 1.0
-0.97317129 -0.0081932331 -0.30285469 0.012462655082345009 0.998314619064331 -0.05667923390865326 255.0 20.0 1.0 1.0
-0.9654305 0.0027976679 -0.27282208 0.010868320241570473 0.9993523955345154 -0.03430408984422684 255.0 21.0 1.0 1.0
-0.98464614 -0.0074695316 -0.27827436 0.010868320241570473 0.9993523955345154 -0.03430408984422684 255.0 21.0 1.0 1.0
-0.96065354 0.0035885337 -0.24432537 0.0040412722155451775 0.9998963475227356 -0.013823865912854671 255.0 22.0 1.0 1.0
-0.97613835 -0.0065865414 -0.24828279 0.0040412722155451775 0.9998963475227356 -0.013823865912854671 255.0 22.0 1.0 1.0
