ply
format ascii 1.0
element vertex 435
property float x
property float y
property float z
property float nx
property float ny
property float nz
property float intensity
property float ring
property float return
property float label
end_header
4.1815405 1.4848968 -1.5159539 0.08075591921806335 -0.00874779000878334 0.9966955780982971 175.0 19.0 1.0 1.0
4.21839 1.4484322 -1.5236223 0.14060969650745392 0.020095527172088623 0.9898610711097717 169.0 19.0 1.0 1.0
4.6509137 1.647611 -1.5411537 0.14258649945259094 0.13294920325279236 0.9808127880096436 255.0 20.0 1.0 1.0
4.6571345 1.5951198 -1.5374638 0.21060273051261902 -0.01854623854160309 0.97739577293396 255.0 20.0 1.0 1.0
4.6706777 1.6503526 -1.4056859 0.01861230842769146 -0.963178277015686 0.2682185173034668 238.0 21.0 1.0 1.0
4.6513505 1.5889153 -1.3946464 0.026793140918016434 -0.935318112373352 0.35279202461242676 217.0 21.0 1.0 1.0
4.9319005 1.7382845 -1.3362485 0.05542466416954994 -0.9527363777160645 0.2986997663974762 145.0 22.0 1.0 1.0
4.9278789 1.6790535 -1.3301852 0.02011488750576973 -0.9931473135948181 0.11512486636638641 94.0 22.0 1.0 1.0
6.6082263 2.3252189 -1.5980606 -0.2561796307563782 -0.9643761515617371 0.06596001237630844 28.0 23.0 1.0 5.0
6.6839509 2.2735085 -1.6103705 -0.12914198637008667 -0.9815999865531921 0.1406553089618683 30.0 23.0 1.0 5.0
5.6473322 1.9837834 -1.2032794 -0.14063555002212524 -0.986384391784668 0.08524986356496811 16.0 24.0 1.0 5.0
7.7135167 2.6200809 -1.6379849 -0.13290727138519287 -0.9799340963363647 0.14854224026203156 31.0 24.0 1.0 5.0
5.1110253 1.7914677 -0.94321465 -0.08398611843585968 -0.9928985238075256 0.08425495773553848 33.0 25.0 1.0 2.0
5.0138664 1.6986204 -0.92179114 -0.08093362301588058 -0.9914806485176086 0.1020577996969223 7.0 25.0 1.0 2.0
10.831021 3.7956407 -1.6958181 -0.1984437257051468 -0.9552289247512817 0.2194487601518631 12.0 26.0 1.0 1.0
10.937689 3.7048957 -1.7060955 -0.10413938015699387 -0.9899354577064514 0.09582845121622086 24.0 26.0 1.0 1.0
5.046536 1.7645152 -0.64995784 -0.12031436711549759 -0.9045247435569763 0.4090961217880249 32.0 27.0 1.0 2.0
4.9331322 1.6670437 -0.63291216 -0.41255447268486023 -0.9077165722846985 0.07648149877786636 21.0 27.0 1.0 2.0
5.4031959 1.8876145 -0.54717046 0.02297431416809559 -0.9996000528335571 -0.016491970047354698 30.0 28.0 1.0 5.0
5.4528742 1.8411553 -0.55009574 -0.10290727764368057 -0.9895093441009521 -0.1013973280787468 31.0 28.0 1.0 5.0
5.4190202 1.8913591 -0.4004814 -0.11109846085309982 -0.9848496913909912 0.13314704596996307 29.0 29.0 1.0 5.0
5.3629494 1.8089923 -0.39477032 -0.07545912265777588 -0.9753411412239075 0.20740199089050293 35.0 29.0 1.0 5.0
5.2687192 1.8381181 -0.24640295 0.06446152925491333 -0.9978813529014587 -0.00880715623497963 35.0 30.0 1.0 2.0
5.2346969 1.7649708 -0.2437982 -0.19038638472557068 -0.9787895679473877 0.07565585523843765 36.0 30.0 1.0 2.0
5.3222661 1.8561037 -0.10536325 0.0 -1.0 0.0 33.0 31.0 1.0 5.0
5.3376427 1.7990128 -0.10516303 -0.1189926415681839 -0.9479407668113708 -0.29537948966026306 36.0 31.0 1.0 5.0
5.0226288 0.77397406 0.03768719 0.027872784063220024 -0.997499942779541 0.06493745744228363 21.0 32.0 1.0 2.0
5.0423532 0.72306854 0.037894834 0.03059566579759121 -0.990182101726532 0.1363939791917801 20.0 32.0 1.0 2.0
5.0479655 0.77638447 0.16793488 0.12451257556676865 -0.9911632537841797 -0.04573814570903778 23.0 33.0 1.0 2.0
4.9885578 0.71385151 0.16583446 -0.11832690238952637 -0.9846230745315552 0.12851524353027344 20.0 33.0 1.0 2.0
5.0697074 0.78003818 0.29958495 -0.1964489072561264 -0.9783481359481812 0.06513680517673492 21.0 34.0 1.0 2.0
5.0143657 0.71785265 0.29598665 0.018337763845920563 -0.9982374906539917 0.0564412847161293 21.0 34.0 1.0 2.0
5.0330467 0.77378374 0.42796794 -0.06997042149305344 -0.9970354437828064 -0.03200791776180267 17.0 35.0 1.0 2.0
5.1000652 0.72955227 0.43310431 -0.08381807804107666 -0.9951295256614685 -0.05188345909118652 17.0 35.0 1.0 2.0
5.0719299 0.77827036 0.56363648 0.028177471831440926 -0.9956609606742859 0.08868677169084549 19.0 36.0 1.0 2.0
11.172777 1.5973547 1.2389005 -0.07911644130945206 -0.9929341673851013 0.08844389021396637 19.0 36.0 1.0 5.0
5.0443993 0.77253991 0.69395888 0.0010251461062580347 -0.9999481439590454 -0.01013227365911007 13.0 37.0 1.0 2.0
9.792119 1.396821 1.3444856 0.15245458483695984 -0.9828485250473022 -0.10376113653182983 20.0 37.0 1.0 5.0
5.0333633 0.76845527 0.82570142 -0.005864178761839867 -0.9998440146446228 0.016662824898958206 232.0 38.0 1.0 1.0
5.0333142 0.71461934 0.82454312 -0.016398854553699493 -0.9982832074165344 -0.056229572743177414 229.0 38.0 1.0 1.0
5.06145 0.77125984 0.96607757 0.07906781882047653 -0.939608097076416 0.33299389481544495 18.0 39.0 1.0 2.0
5.0575681 0.7165845 0.96397591 0.01950809918344021 -0.9586754441261292 0.28383272886276245 22.0 39.0 1.0 2.0
5.0856385 0.77255118 1.1093445 0.03331197798252106 -0.9983611106872559 0.04653434455394745 22.0 40.0 1.0 2.0
5.0740819 0.7165404 1.1052529 0.04146545007824898 -0.9853755831718445 0.1652742177248001 20.0 40.0 1.0 2.0
5.1250057 0.77521551 1.2600367 -0.02574879489839077 -0.99454665184021 -0.1010637953877449 18.0 41.0 1.0 2.0
5.1289811 0.72099173 1.2592157 -0.0314963273704052 -0.9867562651634216 -0.15912310779094696 23.0 41.0 1.0 2.0
5.2212243 0.78641832 1.4297878 -0.04376355558633804 -0.982794463634491 -0.17944321036338806 28.0 42.0 1.0 2.0
5.2559209 0.7354852 1.4372299 -0.03735792636871338 -0.9845801591873169 -0.17089827358722687 30.0 42.0 1.0 2.0
5.3646064 0.80364263 1.623796 -0.03426678851246834 -0.9838217496871948 -0.17584268748760223 33.0 43.0 1.0 5.0
5.4220457 0.75433427 1.6388344 -0.029019467532634735 -0.9841315150260925 -0.1750517189502716 31.0 43.0 1.0 5.0
4.6932101 0.69893962 1.5583214 -0.12072860449552536 -0.1267218440771103 -0.984563946723938 139.0 44.0 1.0 1.0
4.6814294 0.64717519 1.5521953 -0.1320221722126007 -0.028832098469138145 -0.9908273816108704 145.0 44.0 1.0 1.0
4.3604031 0.64564693 1.5792853 -0.1436714380979538 -0.11401137709617615 -0.9830361008644104 127.0 45.0 1.0 1.0
4.3258696 0.59432334 1.5645519 -0.13302476704120636 -0.08587799221277237 -0.987385094165802 118.0 45.0 1.0 1.0
4.0965953 0.60236907 1.6091474 -0.11632629483938217 -0.946934700012207 -0.299638032913208 241.0 46.0 1.0 1.0
4.1248212 0.56250125 1.6179386 -0.08941318839788437 -0.97320955991745 -0.21182158589363098 255.0 46.0 1.0 1.0
3.7751193 0.55185252 1.6030563 -0.1654856950044632 -0.09712845832109451 -0.9814175963401794 118.0 47.0 1.0 1.0
3.692971 0.50038904 1.5659634 -0.13476954400539398 -0.1274951547384262 -0.9826403856277466 28.0 47.0 1.0 1.0
3.5366027 1.260049 1.7015221 -0.10262919217348099 -0.053662173449993134 -0.9932711720466614 238.0 48.0 1.0 1.0
3.5358043 1.2182196 1.6950011 -0.11634895205497742 -0.03074551932513714 -0.9927323460578918 229.0 48.0 1.0 1.0
3.2998567 1.1796864 1.7068528 -0.08903813362121582 -0.05305888131260872 -0.9946138858795166 244.0 49.0 1.0 1.0
3.3086071 1.1439197 1.7051786 -0.11103694885969162 -0.03583231195807457 -0.9931700825691223 241.0 49.0 1.0 1.0
3.0885074 1.1084789 1.713742 -0.12279815971851349 -0.07060384005308151 -0.9899170994758606 241.0 50.0 1.0 1.0
3.0798292 1.0691152 1.702705 -0.08494263142347336 -0.033956870436668396 -0.9958070516586304 238.0 50.0 1.0 1.0
2.8918602 1.0431173 1.7185119 -0.11217200756072998 -0.01796107552945614 -0.9935264587402344 247.0 51.0 1.0 1.0
2.9026008 1.0128077 1.7185795 -0.13068071007728577 -0.03096763789653778 -0.9909407496452332 244.0 51.0 1.0 1.0
2.7361045 0.99136233 1.7386223 -0.11525841802358627 -0.03504674881696701 -0.9927170276641846 255.0 52.0 1.0 1.0
2.7333522 0.95813251 1.7304804 0.15563470125198364 -0.06792581081390381 -0.9854764938354492 253.0 52.0 1.0 1.0
2.5777159 0.93916094 1.7497586 0.1647491455078125 -0.02854245901107788 -0.9859224557876587 255.0 53.0 1.0 1.0
2.6001027 0.91664314 1.7584224 0.22261732816696167 -0.06965111196041107 -0.9724146127700806 255.0 53.0 1.0 1.0
2.4353678 0.89318103 1.7657944 0.2079535871744156 -0.05778081342577934 -0.9764305949211121 250.0 54.0 1.0 1.0
2.407181 0.85435379 1.7388403 -0.3617693781852722 -0.08045255392789841 -0.9287896752357483 226.0 54.0 1.0 1.0
2.2451963 0.82881075 1.7383024 -0.47386354207992554 -0.0055083828046917915 -0.8805810213088989 235.0 55.0 1.0 1.0
2.272007 0.81183696 1.7524593 -0.4527508318424225 -0.04760904237627983 -0.8903650045394897 247.0 55.0 1.0 1.0
2.1140945 0.78679723 1.7483153 -0.05629019811749458 0.025426408275961876 -0.9980906248092651 232.0 56.0 1.0 1.0
2.1340857 0.76894557 1.7581668 0.3567364811897278 0.023791197687387466 -0.9339019656181335 238.0 56.0 1.0 1.0
1.9977719 0.75036049 1.7659163 0.32389959692955017 -0.04967432841658592 -0.9447864890098572 241.0 57.0 1.0 1.0
2.019968 0.73471272 1.7787147 -0.17380885779857635 -0.06047922000288963 -0.9829205870628357 253.0 57.0 1.0 1.0
1.8981663 0.71987987 1.7951263 -0.1961192637681961 -0.07206844538450241 -0.977928102016449 255.0 58.0 1.0 1.0
1.8465374 0.6782279 1.7395211 -0.563639760017395 -0.060708992183208466 -0.823786735534668 235.0 58.0 1.0 1.0
1.7234086 0.66084576 1.7477131 -0.5460131764411926 -0.044964101165533066 -0.8365691304206848 247.0 59.0 1.0 1.0
1.7329304 0.64380813 1.7505037 -0.24717140197753906 -0.046140268445014954 -0.967872679233551 253.0 59.0 1.0 1.0
1.6175706 0.62846577 1.7631469 -0.30596378445625305 -0.10179416090250015 -0.9465855360031128 255.0 60.0 1.0 1.0
1.6266619 0.61251539 1.7660358 -0.03590604290366173 -0.03672744706273079 -0.998680055141449 255.0 60.0 1.0 1.0
1.500598 0.59215236 1.7632616 -0.0709986761212349 -0.08754029124975204 -0.993627667427063 255.0 61.0 1.0 1.0
1.5142506 0.57934201 1.7721515 -0.10766466706991196 -0.05340924486517906 -0.9927515983581543 255.0 61.0 1.0 1.0
1.3858088 0.55617219 1.762283 -0.13054227828979492 -0.06465345621109009 -0.989332377910614 255.0 62.0 1.0 1.0
1.3939393 0.54260242 1.7653674 -0.12034062296152115 -0.06473758071660995 -0.9906196594238281 255.0 62.0 1.0 1.0
1.2814434 0.52505243 1.7731165 -0.09808173775672913 -0.018076535314321518 -0.9950141906738281 255.0 63.0 1.0 1.0
1.2868457 0.51163554 1.7731462 -0.10809332132339478 -0.014415337704122066 -0.9940361976623535 255.0 63.0 1.0 1.0
5.9584651 2.0307148 -1.6087426 0.02011488750576973 -0.9931473135948181 0.11512486636638641 11.0 22.0 2.0 1.0
7.6227136 2.6785598 -1.6247467 -0.14063555002212524 -0.986384391784668 0.08524986356496811 27.0 24.0 2.0 5.0
9.0224876 3.164387 -1.666257 -0.08398611843585968 -0.9928985238075256 0.08425495773553848 22.0 25.0 2.0 5.0
9.0663834 3.0735478 -1.6681076 -0.08093362301588058 -0.9914806485176086 0.1020577996969223 32.0 25.0 2.0 5.0
12.496675 4.3731356 -1.6116079 -0.12031436711549759 -0.9045247435569763 0.4090961217880249 15.0 27.0 2.0 5.0
12.477903 4.2204132 -1.6030936 -0.41255447268486023 -0.9077165722846985 0.07648149877786636 16.0 27.0 2.0 5.0
16.689774 5.8358126 -1.6930116 0.02297431416809559 -0.9996000528335571 -0.016491970047354698 19.0 28.0 2.0 6.0
16.678362 5.6365089 -1.6853731 -0.10290727764368057 -0.9895093441009521 -0.1013973280787468 16.0 28.0 2.0 6.0
10.965268 1.574772 0.081080392 0.03059566579759121 -0.990182101726532 0.1363939791917801 10.0 32.0 2.0 5.0
7.6182089 1.1618711 1.4537288 0.07906781882047653 -0.939608097076416 0.33299389481544495 18.0 39.0 2.0 5.0
7.5910239 1.0765319 1.4464999 0.01950809918344021 -0.9586754441261292 0.28383272886276245 20.0 39.0 2.0 5.0
6.7865162 1.0315938 1.4801456 0.03331197798252106 -0.9983611106872559 0.04653434455394745 20.0 40.0 2.0 5.0
6.7659554 0.95611423 1.4735663 0.04146545007824898 -0.9853755831718445 0.1652742177248001 22.0 40.0 2.0 5.0
6.4585152 0.97743636 1.5877419 -0.02574879489839077 -0.99454665184021 -0.1010637953877449 16.0 41.0 2.0 5.0
6.4645267 0.90923846 1.5869527 -0.0314963273704052 -0.9867562651634216 -0.15912310779094696 8.0 41.0 2.0 5.0
7.3019104 1.1006021 1.9993604 -0.04376355558633804 -0.982794463634491 -0.17944321036338806 12.0 42.0 2.0 5.0
1.196853 0.082406864 -1.5757016 0.16111315786838531 0.04247112199664116 0.9860216379165649 255.0 0.0 1.0 1.0
1.1886345 0.094330959 -1.5661737 0.1745871603488922 0.05630500987172127 0.9830305576324463 255.0 0.0 1.0 1.0
1.2945974 0.09845572 -1.5689864 0.10090472549200058 0.0232483372092247 0.9946244955062866 255.0 1.0 1.0 1.0
1.2909026 0.11176465 -1.565933 0.08138012886047363 0.02329009585082531 0.9964109659194946 255.0 1.0 1.0 1.0
1.3869849 0.11344924 -1.5574493 0.14465633034706116 0.0780753493309021 0.986396849155426 255.0 2.0 1.0 1.0
1.4015654 0.12943828 -1.5753981 0.14465633034706116 0.0780753493309021 0.986396849155426 255.0 2.0 1.0 1.0
1.4980162 0.13032851 -1.5627329 0.11424551159143448 0.021353717893362045 0.9932231307029724 255.0 3.0 1.0 1.0
1.5020269 0.14653428 -1.56854 0.13271045684814453 0.021304327994585037 0.9909258484840393 255.0 3.0 1.0 1.0
1.6229318 0.14818452 -1.5784138 0.11521097272634506 0.09130972623825073 0.9891354441642761 255.0 4.0 1.0 1.0
1.6240898 0.16544679 -1.581239 0.11521097272634506 0.09130972623825073 0.9891354441642761 255.0 4.0 1.0 1.0
1.7254561 0.16399597 -1.5673809 0.1537162959575653 0.012228881008923054 0.9880393743515015 255.0 5.0 1.0 1.0
1.7265353 0.18235108 -1.5701084 0.1537162959575653 0.012228881008923054 0.9880393743515015 255.0 5.0 1.0 1.0
1.8547282 0.18255731 -1.5762783 0.20836549997329712 0.10030626505613327 0.9728938937187195 255.0 6.0 1.0 1.0
1.8465918 0.20128283 -1.571151 0.15432916581630707 -0.0031675873324275017 0.9880144596099854 255.0 6.0 1.0 1.0
1.9910487 0.20162733 -1.5851563 0.13127738237380981 0.09211809933185577 0.9870565533638 255.0 7.0 1.0 1.0
1.9794309 0.22139308 -1.577745 0.12773890793323517 0.09216102957725525 0.9875166416168213 255.0 7.0 1.0 1.0
2.1090043 0.21876273 -1.57458 0.1631946712732315 0.05545704439282417 0.9850341081619263 255.0 8.0 1.0 1.0
2.1097295 0.24118412 -1.5770184 0.1392374187707901 0.030981330201029778 0.9897742867469788 255.0 8.0 1.0 1.0
2.2758636 0.24168667 -1.5940785 0.132496178150177 0.003098689019680023 0.9911786913871765 255.0 9.0 1.0 1.0
2.2405713 0.26165366 -1.5712459 0.0738738402724266 0.003117708954960108 0.997262716293335 250.0 9.0 1.0 1.0
2.4317136 0.26247838 -1.5971951 0.09692715853452682 0.043156180530786514 0.9943553805351257 255.0 10.0 1.0 1.0
2.4154789 0.28632244 -1.5884956 0.11500949412584305 0.0613948255777359 0.9914653301239014 255.0 10.0 1.0 1.0
2.5920501 0.28473684 -1.5958588 0.1158551275730133 0.012091384269297123 0.9931925535202026 247.0 11.0 1.0 1.0
2.5787127 0.31061438 -1.5896502 0.14656084775924683 0.0230681411921978 0.988932728767395 250.0 11.0 1.0 1.0
2.7849586 0.31075436 -1.604879 0.1133095845580101 -0.01058216206729412 0.9935033321380615 253.0 12.0 1.0 1.0
2.7505002 0.33607233 -1.5870343 0.1389472484588623 0.014949713833630085 0.9901869297027588 238.0 12.0 1.0 1.0
2.9757731 0.33611619 -1.6042547 0.17563702166080475 0.05374519154429436 0.9829868078231812 247.0 13.0 1.0 1.0
2.9755309 0.36767524 -1.6062174 0.12160955369472504 0.050111573189496994 0.9913122057914734 250.0 13.0 1.0 1.0
3.210758 0.36648226 -1.6165527 0.09187056124210358 0.06753286719322205 0.9934782981872559 244.0 14.0 1.0 1.0
3.1676526 0.39517137 -1.596923 0.13748328387737274 0.08988886326551437 0.9864168763160706 232.0 14.0 1.0 1.0
3.4443278 0.39721063 -1.6164041 0.1798882931470871 -0.006244221702218056 0.9836671948432922 232.0 15.0 1.0 1.0
3.4255388 0.43141866 -1.6097188 0.15840044617652893 0.0 0.987375020980835 229.0 15.0 1.0 1.0
3.3342738 1.0782859 -1.5233727 0.15782639384269714 0.03811135143041611 0.9867311120033264 223.0 16.0 1.0 1.0
3.3331749 1.1166253 -1.5282396 0.1368204653263092 0.068706214427948 0.9882103204727173 235.0 16.0 1.0 1.0
3.6206493 1.1671922 -1.5322914 0.057058341801166534 0.029140349477529526 0.9979454278945923 220.0 17.0 1.0 1.0
3.5905833 1.1991371 -1.5248952 0.1412705034017563 0.11358556896448135 0.9834332466125488 214.0 17.0 1.0 1.0
3.9278336 1.2614172 -1.5334297 0.12124933302402496 0.01975126378238201 0.9924255609512329 196.0 18.0 1.0 1.0
3.9143536 1.3024606 -1.5335214 0.1292565017938614 0.03332212567329407 0.9910511374473572 205.0 18.0 1.0 1.0
4.2911534 1.3736702 -1.5389557 0.11949609965085983 0.03851586580276489 0.9920873045921326 172.0 19.0 1.0 1.0
4.2477436 1.4089638 -1.5287015 0.11390213668346405 0.00832252949476242 0.9934571385383606 163.0 19.0 1.0 1.0
4.6568985 1.4867994 -1.5265049 0.07088705152273178 -0.35274720191955566 0.9330296516418457 255.0 20.0 1.0 1.0
4.6881299 1.5510767 -1.5421298 0.08590885996818542 -0.3153071105480194 0.9450932145118713 255.0 20.0 1.0 1.0
4.6690426 1.4865069 -1.3900576 0.07457973062992096 -0.8672390580177307 0.49227461218833923 199.0 21.0 1.0 1.0
4.6568222 1.5365061 -1.3912594 0.08154065161943436 -0.8943503499031067 0.4398733079433441 196.0 21.0 1.0 1.0
4.7995658 1.5238363 -1.2863449 -0.842740535736084 -0.5341516733169556 0.06685969978570938 55.0 22.0 1.0 1.0
4.8900304 1.6091692 -1.3152022 0.205644428730011 -0.9773207902908325 -0.05054022744297981 27.0 22.0 1.0 1.0
4.8047719 1.5221089 -1.1489525 0.06319177150726318 -0.9932050704956055 0.09772667288780212 20.0 23.0 1.0 0.0
6.7333808 2.2119162 -1.6164457 -0.03230758011341095 -0.9946272969245911 0.09835077077150345 30.0 23.0 1.0 5.0
4.9892416 1.5780828 -1.0513928 0.04737456887960434 -0.9916129112243652 0.12024801969528198 11.0 24.0 1.0 2.0
7.826282 2.5672896 -1.6559527 -0.0004588635638356209 -0.9855692982673645 0.1692722737789154 31.0 24.0 1.0 5.0
9.2904472 2.934088 -1.6972244 0.03061372973024845 -0.9906672239303589 0.13282077014446259 33.0 25.0 1.0 5.0
9.1543016 2.9968426 -1.6782017 -0.056611061096191406 -0.9904574155807495 0.12565580010414124 32.0 25.0 1.0 5.0
5.0095797 1.5793828 -0.77501523 0.030632957816123962 -0.9935852289199829 0.10885767638683319 9.0 26.0 1.0 2.0
11.081253 3.6245925 -1.7222166 -0.027940982952713966 -0.9944183230400085 0.10174202919006348 27.0 26.0 1.0 1.0
11.064036 3.4854286 -1.4110558 -0.038463667035102844 -0.9676039814949036 0.24952594935894012 12.0 27.0 1.0 5.0
4.9956412 1.6300982 -0.63859999 0.02037314884364605 -0.9920265078544617 0.12437191605567932 14.0 27.0 1.0 2.0
5.0117617 1.5758762 -0.5017966 0.026632169261574745 -0.9995852112770081 -0.01096269953995943 7.0 28.0 1.0 2.0
5.0668731 1.651728 -0.50915998 0.02358182705938816 -0.9950630068778992 -0.09640302509069443 8.0 28.0 1.0 2.0
5.0419159 1.583744 -0.36829093 0.0018939011497423053 -0.9991965889930725 0.040034063160419464 16.0 29.0 1.0 2.0
4.9908857 1.6252961 -0.36589661 -0.06994584202766418 -0.9975309371948242 -0.0062906029634177685 11.0 29.0 1.0 2.0
5.0761456 1.5938438 -0.23452336 -0.05307658016681671 -0.9978473782539368 -0.03851688653230667 22.0 30.0 1.0 2.0
5.2149229 1.6976718 -0.24190481 -0.1208314299583435 -0.992078423500061 0.03435597941279411 32.0 30.0 1.0 2.0
5.0689688 1.5909178 -0.098887548 -0.055309418588876724 -0.9984290599822998 -0.008962360210716724 12.0 31.0 1.0 2.0
5.3409996 1.7380623 -0.10473698 0.09655918180942535 -0.9540190100669861 -0.28376802802085876 36.0 31.0 1.0 5.0
5.0048041 0.61101365 0.037751839 0.02847355790436268 -0.9956368803977966 0.0888625979423523 26.0 32.0 1.0 2.0
5.0615535 0.67181039 0.038094837 -0.029913894832134247 -0.9953830242156982 0.09120125323534012 25.0 32.0 1.0 2.0
5.0381503 0.61361122 0.16724475 0.11834283173084259 -0.987988293170929 0.09936879575252533 25.0 33.0 1.0 2.0
5.0552135 0.66946912 0.16790834 -0.026923716068267822 -0.9989058971405029 0.03823623061180115 23.0 33.0 1.0 2.0
5.0322785 0.61319149 0.29645282 -0.1054825559258461 -0.9872263669967651 0.11940470337867737 19.0 34.0 1.0 2.0
5.0572386 0.67003715 0.29819268 0.11520647257566452 -0.9738234877586365 0.1959470957517624 21.0 34.0 1.0 2.0
5.0271897 0.61197811 0.42598227 0.06299164146184921 -0.9966822266578674 0.05154188349843025 15.0 35.0 1.0 2.0
5.0125957 0.66351265 0.42519245 -0.0 -1.0 0.0 16.0 35.0 1.0 2.0
5.0741467 0.61621964 0.56181359 0.06989984959363937 -0.9953519701957703 0.06624526530504227 19.0 36.0 1.0 2.0
5.1423039 0.67921579 0.56997991 0.03483230993151665 -0.9958921670913696 -0.0835786759853363 24.0 36.0 1.0 2.0
5.0583048 0.61280531 0.6932385 -0.06162344664335251 -0.9284024238586426 -0.36643075942993164 11.0 37.0 1.0 2.0
5.098763 0.6719467 0.69957882 -0.12165779620409012 -0.9345605969429016 -0.33435890078544617 14.0 37.0 1.0 2.0
5.0706859 0.61192459 0.82861727 -0.08657801896333694 -0.9787983298301697 -0.1856287717819214 255.0 38.0 1.0 1.0
5.0561733 0.66393203 0.82721549 -0.01944943144917488 -0.9960546493530273 -0.08658427000045776 244.0 38.0 1.0 1.0
5.1104732 0.61524695 0.97162533 0.013564015738666058 -0.9954777359962463 0.09402220696210861 23.0 39.0 1.0 2.0
5.0725789 0.66460371 0.96557188 0.03912518918514252 -0.9829471707344055 0.17967797815799713 23.0 39.0 1.0 2.0
5.0724244 0.60827571 1.1021171 0.025158878415822983 -0.9964483976364136 0.08035850524902344 21.0 40.0 1.0 2.0
5.0812941 0.66336179 1.1053667 -0.03468271717429161 -0.9865713119506836 0.15960611402988434 21.0 40.0 1.0 2.0
5.1043324 0.60882658 1.2500077 -0.019394047558307648 -0.9954355955123901 -0.09344522655010223 20.0 41.0 1.0 2.0
5.1053987 0.66322005 1.2517741 -0.02275053597986698 -0.9876792430877686 -0.15482944250106812 17.0 41.0 1.0 2.0
5.3046384 0.62938195 1.4468831 -0.00467882351949811 -0.9854121208190918 -0.170120969414711 30.0 42.0 1.0 5.0
5.2786303 0.68238467 1.441529 -0.01148918829858303 -0.9859811663627625 -0.166460782289505 27.0 42.0 1.0 5.0
5.3795238 0.63389337 1.6218815 -0.033584173768758774 -0.9792004823684692 -0.2000960409641266 32.0 43.0 1.0 5.0
5.3498087 0.68722367 1.6148704 -0.02621942013502121 -0.9813085198402405 -0.19064678251743317 33.0 43.0 1.0 5.0
4.6637168 0.54547489 1.542429 -0.12118332833051682 -0.0995793417096138 -0.9876226782798767 151.0 44.0 1.0 1.0
4.6879258 0.5981133 1.5523 -0.09274917095899582 -0.0793764516711235 -0.9925206303596497 187.0 44.0 1.0 1.0
4.3186212 0.50144804 1.5580074 -0.15841004252433777 -0.10218634456396103 -0.9820713996887207 136.0 45.0 1.0 1.0
4.339303 0.54994011 1.5673466 -0.2097437083721161 -0.12798558175563812 -0.9693437814712524 121.0 45.0 1.0 1.0
4.1208348 0.47431186 1.6123344 -0.01365608535706997 -0.643932580947876 -0.7649604082107544 255.0 46.0 1.0 1.0
4.1045661 0.51600808 1.6078887 -0.07470419257879257 -0.9642461538314819 -0.2542611360549927 255.0 46.0 1.0 1.0
3.6732862 0.41960889 1.5537384 -0.12052849680185318 -0.08616264909505844 -0.9889636039733887 64.0 47.0 1.0 1.0
3.6796885 0.45939812 1.5582982 -0.11811239272356033 -0.11120767146348953 -0.9867534041404724 64.0 47.0 1.0 1.0
3.5327499 1.1350052 1.6819568 -0.13261429965496063 -0.05099959671497345 -0.9898547530174255 232.0 48.0 1.0 1.0
3.5379751 1.177671 1.6901295 -0.06381815671920776 -0.006537063512951136 -0.997940182685852 238.0 48.0 1.0 1.0
3.3146803 1.0688837 1.6965748 -0.13859672844409943 -0.05968226119875908 -0.988548994064331 244.0 49.0 1.0 1.0
3.2965093 1.101222 1.6929948 -0.13921348750591278 -0.04476543515920639 -0.9892500638961792 238.0 49.0 1.0 1.0
3.1082401 1.0066079 1.7065512 -0.10044251382350922 -0.052806198596954346 -0.9935405850410461 253.0 50.0 1.0 1.0
3.0874708 1.0356808 1.700924 -0.1389126032590866 -0.0676574558019638 -0.9879907965660095 235.0 50.0 1.0 1.0
2.9131682 0.94858509 1.7128584 0.10682404041290283 -0.013848569244146347 -0.9941815733909607 253.0 51.0 1.0 1.0
2.9130223 0.9823634 1.7186458 -0.16348592936992645 -0.03081524185836315 -0.9860641956329346 255.0 51.0 1.0 1.0
2.7984459 0.91570437 1.7593288 0.25876492261886597 -0.06642165035009384 -0.9636539220809937 255.0 52.0 1.0 1.0
2.778975 0.94161487 1.7531092 0.15563470125198364 -0.06792581081390381 -0.9854764938354492 255.0 52.0 1.0 1.0
2.557832 0.84194231 1.7176726 -0.3921832740306854 -0.019128553569316864 -0.9196882247924805 229.0 53.0 1.0 1.0
2.622297 0.89373612 1.7670854 0.3436264395713806 0.012179169803857803 -0.9390274286270142 255.0 53.0 1.0 1.0
2.4056692 0.79753435 1.725445 -0.10500083863735199 -0.10250111669301987 -0.9891756176948547 235.0 54.0 1.0 1.0
2.4159689 0.82910901 1.7388949 -0.44036149978637695 -0.07918893545866013 -0.8943214416503906 241.0 54.0 1.0 1.0
2.2853899 0.76309085 1.7502129 0.38370463252067566 -0.09572845697402954 -0.9184807538986206 247.0 55.0 1.0 1.0
2.2681258 0.7837708 1.7431073 -0.0878843143582344 -0.10326215624809265 -0.9907639622688293 247.0 55.0 1.0 1.0
2.164643 0.72918779 1.7705181 -0.19087159633636475 -0.10506518930196762 -0.9759760499000549 255.0 56.0 1.0 1.0
2.1449776 0.74761051 1.7606654 0.3459361791610718 -0.06347857415676117 -0.9361081719398499 241.0 56.0 1.0 1.0
1.9765358 0.67237782 1.727798 -0.6032084822654724 -0.05709342285990715 -0.7955374717712402 235.0 57.0 1.0 1.0
2.0159009 0.7094267 1.7685584 -0.17380885779857635 -0.06047922000288963 -0.9829205870628357 247.0 57.0 1.0 1.0
1.8772776 0.64531636 1.7555062 -0.2169872373342514 -0.045758236199617386 -0.9751014709472656 255.0 58.0 1.0 1.0
1.8704425 0.66490889 1.7554626 -0.5350704789161682 -0.039600398391485214 -0.8438787460327148 255.0 58.0 1.0 1.0
1.7514635 0.60933536 1.7560841 -0.07267944514751434 -0.003412241581827402 -0.9973495006561279 255.0 59.0 1.0 1.0
1.7422806 0.62662596 1.7532928 -0.24717140197753906 -0.046140268445014954 -0.967872679233551 255.0 59.0 1.0 1.0
1.6205693 0.57180059 1.7461505 -0.10720804333686829 -0.036539338529109955 -0.993565022945404 247.0 60.0 1.0 1.0
1.6303239 0.59449726 1.7632204 -0.03590604290366173 -0.03672744706273079 -0.998680055141449 255.0 60.0 1.0 1.0
1.5209184 0.54571795 1.7663165 -0.1014847606420517 -0.04598303884267807 -0.9937738180160522 255.0 61.0 1.0 1.0
1.5075564 0.5587585 1.757426 -0.10766466706991196 -0.05340924486517906 -0.9927515983581543 255.0 61.0 1.0 1.0
1.4073694 0.51422852 1.7684828 -0.10774844139814377 -0.05202207341790199 -0.9928162097930908 255.0 62.0 1.0 1.0
1.3995157 0.52799112 1.7653979 -0.12034062296152115 -0.06473758071660995 -0.9906196594238281 255.0 62.0 1.0 1.0
1.2995278 0.48548618 1.7763572 -0.18269425630569458 -0.10293322801589966 -0.9777666330337524 255.0 63.0 1.0 1.0
1.2921036 0.49814793 1.7731742 -0.18269425630569458 -0.10293322801589966 -0.9777666330337524 255.0 63.0 1.0 1.0
5.9426537 1.9560796 -1.5986913 0.205644428730011 -0.9773207902908325 -0.05054022744297981 11.0 22.0 2.0 1.0
6.8603091 2.1743152 -1.6412128 0.06319177150726318 -0.9932050704956055 0.09772667288780212 24.0 23.0 2.0 5.0
7.9088707 2.5029621 -1.6676047 0.04737456887960434 -0.9916129112243652 0.12024801969528198 30.0 24.0 2.0 5.0
11.126212 3.5107307 -1.7231264 0.030632957816123962 -0.9935852289199829 0.10885767638683319 27.0 26.0 2.0 5.0
11.075948 3.617089 -1.4175996 0.08048853278160095 -0.9917268753051758 0.09999655932188034 7.0 27.0 2.0 5.0
12.353124 3.8877866 -1.2388483 0.026632169261574745 -0.9995852112770081 -0.01096269953995943 21.0 28.0 2.0 5.0
12.357109 4.0317402 -1.2437129 0.02358182705938816 -0.9950630068778992 -0.09640302509069443 8.0 28.0 2.0 5.0
12.33487 3.8780522 -0.90290165 0.0018939011497423053 -0.9991965889930725 0.040034063160419464 24.0 29.0 2.0 5.0
11.180997 1.4791477 1.2382748 0.03483230993151665 -0.9958921670913696 -0.0835786759853363 22.0 36.0 2.0 5.0
9.7315369 1.2842709 1.3344697 -0.12165779620409012 -0.9345605969429016 -0.33435890078544617 19.0 37.0 2.0 5.0
7.5221138 0.90649098 1.4298022 0.013564015738666058 -0.9954777359962463 0.09402220696210861 19.0 39.0 2.0 5.0
7.5122261 0.98518133 1.4296216 0.03912518918514252 -0.9829471707344055 0.17967797815799713 18.0 39.0 2.0 5.0
6.7961025 0.81562465 1.4764107 0.025158878415822983 -0.9964483976364136 0.08035850524902344 11.0 40.0 2.0 5.0
6.7794542 0.88570201 1.4745617 -0.03468271717429161 -0.9865713119506836 0.15960611402988434 19.0 40.0 2.0 5.0
6.4743872 0.7727496 1.5853647 -0.019394047558307648 -0.9954355955123901 -0.09344522655010223 7.0 41.0 2.0 5.0
6.4466906 0.83796442 1.5804862 -0.02275053597986698 -0.9876792430877686 -0.15482944250106812 14.0 41.0 2.0 5.0
1.1984164 0.057371967 -1.5756484 0.04857364296913147 0.04298251122236252 0.9978943467140198 255.0 0.0 1.0 1.0
1.2025234 0.070188776 -1.5820484 0.04857364296913147 0.04298251122236252 0.9978943467140198 255.0 0.0 1.0 1.0
1.2990177 0.071513422 -1.5720134 0.09756240248680115 0.01987428590655327 0.99503093957901 255.0 1.0 1.0 1.0
1.2956005 0.084923469 -1.5689602 0.10090472549200058 0.0232483372092247 0.9946244955062866 255.0 1.0 1.0 1.0
1.4024398 0.085249431 -1.5723157 0.11925071477890015 0.14414405822753906 0.9823449850082397 255.0 2.0 1.0 1.0
1.3987592 0.099719293 -1.569364 0.11270790547132492 0.07840250432491302 0.9905301332473755 255.0 2.0 1.0 1.0
1.5198662 0.10027448 -1.5828625 0.2237563580274582 0.034206852316856384 0.9740446209907532 255.0 3.0 1.0 1.0
1.5048661 0.11509245 -1.5684726 0.10812519490718842 0.015158696100115776 0.9940217137336731 255.0 3.0 1.0 1.0
1.6229163 0.11400533 -1.5755551 0.1806565225124359 0.03217017650604248 0.983020007610321 255.0 4.0 1.0 1.0
1.6244382 0.1312094 -1.57838 0.12869301438331604 0.07177752256393433 0.989083468914032 255.0 4.0 1.0 1.0
1.743392 0.12897925 -1.5807314 0.12574422359466553 0.04387997090816498 0.9910918474197388 255.0 5.0 1.0 1.0
1.7300757 0.14619851 -1.5700305 0.18409012258052826 0.04347510263323784 0.9819473624229431 255.0 5.0 1.0 1.0
1.8673729 0.14443418 -1.5839517 0.1543315201997757 0.04604051634669304 0.9869459271430969 255.0 6.0 1.0 1.0
1.8596218 0.16342163 -1.578825 0.2071119099855423 0.1003335639834404 0.9731586575508118 255.0 6.0 1.0 1.0
1.9918125 0.15967587 -1.5825796 0.14739318192005157 0.057910919189453125 0.9873811602592468 255.0 7.0 1.0 1.0
1.9899746 0.18050626 -1.5826278 0.11958783119916916 0.08032887428998947 0.9895686507225037 255.0 7.0 1.0 1.0
2.1292155 0.17592555 -1.5864205 0.08525916934013367 -0.009216517210006714 0.9963161945343018 255.0 8.0 1.0 1.0
2.1303957 0.19849426 -1.5888592 0.14449971914291382 0.05079330876469612 0.988200306892395 255.0 8.0 1.0 1.0
2.2805278 0.19401361 -1.5939748 0.08250008523464203 0.04770703241229057 0.9954485297203064 255.0 9.0 1.0 1.0
2.2848454 0.21849531 -1.5986071 0.17609110474586487 0.04773319140076637 0.9832158088684082 255.0 9.0 1.0 1.0
2.433444 0.2112439 -1.5948946 0.13139313459396362 0.047996919602155685 0.9901677966117859 255.0 10.0 1.0 1.0
2.4277103 0.23636889 -1.5927639 0.13139313459396362 0.047996919602155685 0.9901677966117859 247.0 10.0 1.0 1.0
2.6077373 0.23134194 -1.6020106 0.10160262137651443 0.042612649500370026 0.9939119815826416 244.0 11.0 1.0 1.0
2.5983281 0.25793958 -1.597893 0.1553228795528412 0.05226043984293938 0.9864804744720459 247.0 11.0 1.0 1.0
2.7978692 0.2530309 -1.6087312 0.13758394122123718 0.08944733440876007 0.9864431023597717 250.0 12.0 1.0 1.0
2.7777491 0.28054202 -1.5988485 0.0782478004693985 0.029620643705129623 0.9964938759803772 247.0 12.0 1.0 1.0
2.9892819 0.27440941 -1.6078994 0.16814914345741272 0.04098152741789818 0.9849093556404114 238.0 13.0 1.0 1.0
2.9932003 0.30640098 -1.6117532 0.14429888129234314 -0.009575098752975464 0.9894877672195435 247.0 13.0 1.0 1.0
3.2213933 0.29953027 -1.6181962 0.15210917592048645 0.061949655413627625 0.9864203333854675 235.0 14.0 1.0 1.0
3.2144656 0.33285859 -1.6164824 0.13266153633594513 0.05801699310541153 0.9894618988037109 235.0 14.0 1.0 1.0
3.4519942 0.32502618 -1.6162453 0.17001396417617798 -0.0006901590386405587 0.9854413866996765 217.0 15.0 1.0 1.0
3.4699721 0.36341518 -1.62648 0.14170774817466736 -0.0014367265393957496 0.9899075031280518 235.0 15.0 1.0 1.0
3.3983707 1.0209476 -1.5423725 0.14224472641944885 0.03208652138710022 0.9893113374710083 229.0 16.0 1.0 1.0
3.3559325 1.0466112 -1.5280854 0.15030784904956818 0.0972050130367279 0.9838489294052124 217.0 16.0 1.0 1.0
3.662169 1.0964756 -1.5396029 0.10314386337995529 0.028537632897496223 0.9942569732666016 217.0 17.0 1.0 1.0
3.6610565 1.1380563 -1.5441761 0.15342146158218384 0.053012195974588394 0.986737847328186 229.0 17.0 1.0 1.0
4.0001898 1.1928672 -1.551381 0.1695387214422226 0.06304159015417099 0.983505129814148 199.0 18.0 1.0 1.0
3.9551988 1.2246741 -1.5389196 0.18124064803123474 0.015019002370536327 0.9833241701126099 190.0 18.0 1.0 1.0
4.3662438 1.2975719 -1.5555785 0.15084423124790192 0.07452192157506943 0.9857445955276489 178.0 19.0 1.0 1.0
4.3306646 1.3364964 -1.5479157 0.10479933023452759 0.09116313606500626 0.9903062582015991 181.0 19.0 1.0 1.0
4.6688194 1.3835423 -1.5203215 0.08678095787763596 -0.9036452770233154 0.4193975627422333 255.0 20.0 1.0 1.0
4.6649661 1.4357122 -1.5240107 0.032762639224529266 -0.8800277709960938 0.4737907648086548 255.0 20.0 1.0 1.0
4.7804213 1.4124514 -1.413879 0.10805816948413849 -0.3450814187526703 0.9323316812515259 187.0 21.0 1.0 1.0
4.6917562 1.4398026 -1.3921354 0.10783813148736954 -0.3308040201663971 0.9375178217887878 145.0 21.0 1.0 1.0
4.8230863 1.4208205 -1.2841394 0.21241545677185059 -0.8261281847953796 0.5219118595123291 23.0 22.0 1.0 1.0
4.8153048 1.4735001 -1.286234 0.2642103433609009 -0.5759608149528503 -0.7736032605171204 25.0 22.0 1.0 1.0
5.0788479 1.4927627 -1.2065779 0.027432899922132492 -0.9960769414901733 0.08413174748420715 10.0 23.0 1.0 2.0
4.8167605 1.470578 -1.1479515 0.058414142578840256 -0.9929489493370056 0.10315142571926117 23.0 23.0 1.0 0.0
4.8482118 1.4224145 -1.0148743 -0.013421670533716679 -0.9929477572441101 0.11779018491506577 21.0 24.0 1.0 0.0
4.818006 1.4685055 -1.0118318 0.0543162040412426 -0.9913173317909241 0.11974859237670898 76.0 24.0 1.0 0.0
4.9597507 1.4517437 -0.89934176 0.005337578244507313 -0.993606448173523 0.11277321726083755 16.0 25.0 1.0 2.0
4.8311491 1.4691346 -0.87884903 0.037042777985334396 -0.9920847415924072 0.11998217552900314 79.0 25.0 1.0 0.0
4.7947884 1.4018592 -0.7367754 -0.003352772444486618 -0.9913737773895264 0.1310226172208786 28.0 26.0 1.0 0.0
4.7684531 1.4485147 -0.73513287 0.040072180330753326 -0.9922021627426147 0.1180209293961525 28.0 26.0 1.0 1.0
5.0559106 1.4757664 -0.63969928 0.135255366563797 -0.9618488550186157 0.2378081977367401 11.0 27.0 1.0 2.0
4.9907556 1.5136044 -0.63353348 0.12102685868740082 -0.9156855940818787 0.3832393288612366 13.0 27.0 1.0 2.0
5.0055017 1.4594356 -0.49775189 -0.05089869722723961 -0.9973576068878174 0.05183788388967514 18.0 28.0 1.0 2.0
5.0661192 1.5348734 -0.50549299 -0.05832281336188316 -0.9978548288345337 0.029738375917077065 14.0 28.0 1.0 2.0
5.0318923 1.4655399 -0.36498874 0.0664864033460617 -0.9890545010566711 0.13172292709350586 20.0 29.0 1.0 2.0
5.081161 1.5378075 -0.36984807 -0.12261642515659332 -0.9819410443305969 0.14407315850257874 17.0 29.0 1.0 2.0
5.0163846 1.4603654 -0.23004185 0.07315246015787125 -0.9973130822181702 0.003911448642611504 20.0 30.0 1.0 2.0
5.0160913 1.517427 -0.2308668 0.015494334511458874 -0.9998166561126709 0.0112512968480587 19.0 30.0 1.0 2.0
5.066658 1.4743658 -0.097975112 -0.058299385011196136 -0.9968410134315491 -0.05393818020820618 14.0 31.0 1.0 2.0
5.0432653 1.524999 -0.097942933 0.0033497188705950975 -0.9999834299087524 -0.0046967691741883755 11.0 31.0 1.0 2.0
5.0404067 0.50851101 0.038159423 -0.6133767366409302 -0.7777014374732971 0.1376570463180542 30.0 32.0 1.0 2.0
5.0347886 0.56124038 0.038038161 0.18036265671253204 -0.9834204316139221 0.01880415342748165 27.0 32.0 1.0 2.0
5.0101404 0.5039745 0.1661676 -0.38394638895988464 -0.9212209582328796 -0.06274721026420593 23.0 33.0 1.0 2.0
5.1317172 0.5705719 0.17023864 0.09699415415525436 -0.9938272833824158 -0.05384619161486626 30.0 33.0 1.0 2.0
5.0480046 0.50809568 0.29691911 -0.08076723664999008 -0.9847823977470398 0.1538841426372528 21.0 34.0 1.0 2.0
5.0701761 0.5640052 0.29842728 0.07200130820274353 -0.9642257690429688 0.255116730928421 22.0 34.0 1.0 2.0
5.0111513 0.50378615 0.42387244 0.07858329266309738 -0.9968302249908447 0.012417895719408989 18.0 35.0 1.0 2.0
5.0570922 0.56195104 0.42810184 0.08984822779893875 -0.9892400503158569 0.1154620423913002 20.0 35.0 1.0 2.0
5.0384674 0.50506771 0.55681086 0.0781274065375328 -0.9933003187179565 0.08514916896820068 19.0 36.0 1.0 2.0
5.1633062 0.57227808 0.57109129 0.12793560326099396 -0.9850410223007202 -0.11544164270162582 27.0 36.0 1.0 2.0
5.0463634 0.50438887 0.69024032 0.04751444607973099 -0.807822585105896 -0.5875073671340942 10.0 37.0 1.0 2.0
5.0408039 0.5571785 0.69011891 0.11501829326152802 -0.8678995966911316 -0.4832402169704437 14.0 37.0 1.0 2.0
5.0509477 0.50248486 0.82373118 -0.025035828351974487 -0.9611696004867554 -0.2748204171657562 247.0 38.0 1.0 1.0
5.0532608 0.55618912 0.82488978 -0.018999729305505753 -0.9742137789726257 -0.224825918674469 241.0 38.0 1.0 1.0
5.094841 0.50538552 0.96667129 0.07498965412378311 -0.9515325427055359 0.2982654571533203 19.0 39.0 1.0 2.0
5.100997 0.55997312 0.96877313 -0.062419693917036057 -0.9502987265586853 0.3050181567668915 22.0 39.0 1.0 2.0
5.0723538 0.5007816 1.0998226 0.08519860357046127 -0.9780991077423096 0.18990358710289001 19.0 40.0 1.0 2.0
5.0785017 0.5551219 1.10223 -0.022388197481632233 -0.9952618479728699 0.0946187674999237 22.0 40.0 1.0 2.0
5.1004605 0.50029737 1.2464651 0.038839057087898254 -0.9911593198776245 -0.1268654465675354 18.0 41.0 1.0 2.0
5.094955 0.55365187 1.2463423 0.025483088567852974 -0.9977197647094727 -0.06249861791729927 16.0 41.0 1.0 2.0
5.305089 0.51704866 1.4439925 -0.023164447396993637 -0.9771419763565063 -0.2113218456506729 30.0 42.0 1.0 5.0
5.3262706 0.5754571 1.4511831 -0.009159461595118046 -0.9807267785072327 -0.19516879320144653 28.0 42.0 1.0 5.0
5.3305469 0.51519746 1.6037759 -0.04602496325969696 -0.9773043394088745 -0.20677988231182098 33.0 43.0 1.0 5.0
5.355361 0.57423848 1.6128244 -0.0383182093501091 -0.9772303700447083 -0.20869223773479462 33.0 43.0 1.0 5.0
4.647594 0.44516659 1.5339077 -0.1777271330356598 -0.07459726184606552 -0.9812483191490173 151.0 44.0 1.0 1.0
4.6578126 0.49539468 1.5387881 -0.1462915688753128 -0.08652324229478836 -0.9854504466056824 157.0 44.0 1.0 1.0
4.2906451 0.40734971 1.5447143 -0.08280385285615921 -0.051206354051828384 -0.9952493906021118 142.0 45.0 1.0 1.0
4.3348446 0.45738667 1.5621506 -0.07565320283174515 -0.08176623284816742 -0.9937760829925537 178.0 45.0 1.0 1.0
4.1186805 0.38688755 1.6081777 -0.03314324468374252 -0.8626306653022766 -0.5047473311424255 255.0 46.0 1.0 1.0
4.1070094 0.4291876 1.6051804 -0.02857104502618313 -0.7315977215766907 -0.6811376214027405 255.0 46.0 1.0 1.0
3.6628652 0.34090459 1.5461594 -0.1065259724855423 -0.3556181490421295 -0.9285407662391663 124.0 47.0 1.0 1.0
3.6517789 0.37844896 1.542972 -0.1398625671863556 0.22559519112110138 -0.9641293287277222 94.0 47.0 1.0 1.0
3.5556979 1.060806 1.6821203 -0.15163004398345947 -0.07972894608974457 -0.9852165579795837 244.0 48.0 1.0 1.0
3.5478978 1.0990322 1.6836886 -0.12982019782066345 -0.047400787472724915 -0.9904038906097412 235.0 48.0 1.0 1.0
3.325958 0.99616545 1.6914732 -0.14194509387016296 -0.08455124497413635 -0.9862568378448486 244.0 49.0 1.0 1.0
3.3016346 1.0266287 1.6843895 -0.12758035957813263 -0.017005641013383865 -0.9916825294494629 238.0 49.0 1.0 1.0
3.1218014 0.93928164 1.702991 0.13029220700263977 -0.06299754977226257 -0.9894721508026123 255.0 50.0 1.0 1.0
3.1118181 0.97189087 1.7029183 -0.17140638828277588 -0.05513616278767586 -0.9836563467979431 253.0 50.0 1.0 1.0
2.9690964 0.89855766 1.7344643 0.2472524642944336 -0.036042436957359314 -0.9682804942131042 238.0 51.0 1.0 1.0
2.9562187 0.92852098 1.7324433 0.10676118731498718 -0.03698478266596794 -0.993596613407135 253.0 51.0 1.0 1.0
2.7381341 0.83289069 1.7102164 -0.35110214352607727 -0.06210791692137718 -0.9342750906944275 226.0 52.0 1.0 1.0
2.7587492 0.87081367 1.7286175 -0.35110214352607727 -0.06210791692137718 -0.9342750906944275 235.0 52.0 1.0 1.0
2.5651817 0.78526098 1.7113365 -0.05702902749180794 -0.05296451970934868 -0.9969666004180908 238.0 53.0 1.0 1.0
2.5632689 0.81409663 1.715579 -0.4526844620704651 -0.04652586951851845 -0.8904560804367065 232.0 53.0 1.0 1.0
2.4596958 0.75874889 1.7525698 0.30592164397239685 -0.048919349908828735 -0.9507990479469299 253.0 54.0 1.0 1.0
2.4075654 0.77028805 1.7209969 -0.10500083863735199 -0.10250111669301987 -0.9891756176948547 235.0 54.0 1.0 1.0
2.3193538 0.72088426 1.764424 -0.17012935876846313 -0.058257780969142914 -0.9836981296539307 255.0 55.0 1.0 1.0
2.2901487 0.73813176 1.7479131 0.3602033257484436 -0.05515117198228836 -0.9312421679496765 255.0 55.0 1.0 1.0
2.1281252 0.66759837 1.7289534 -0.5263770222663879 -0.031500495970249176 -0.8496676087379456 247.0 56.0 1.0 1.0
2.1510952 0.69962507 1.7534113 -0.19087159633636475 -0.10506518930196762 -0.9759760499000549 244.0 56.0 1.0 1.0
2.004813 0.63555223 1.7406411 -0.19980791211128235 -0.023558707907795906 -0.9795518517494202 255.0 57.0 1.0 1.0
1.9980726 0.65648091 1.7405946 -0.5372833013534546 -0.02939552813768387 -0.8428894281387329 255.0 57.0 1.0 1.0
1.8618072 0.59672582 1.7290891 -0.12335345894098282 -0.06246766820549965 -0.9903947710990906 250.0 58.0 1.0 1.0
1.8611658 0.61805433 1.7343463 -0.2317182570695877 -0.06123514473438263 -0.9708536863327026 247.0 58.0 1.0 1.0
1.7555041 0.56986618 1.7479111 -0.1137298196554184 -0.058789078146219254 -0.99177086353302 253.0 59.0 1.0 1.0
1.7604712 0.59190345 1.7588736 -0.1274545043706894 -0.05869041383266449 -0.990106463432312 255.0 59.0 1.0 1.0
1.6401252 0.54042637 1.7547781 -0.1579948514699936 -0.07732213288545609 -0.984407901763916 255.0 60.0 1.0 1.0
1.6397089 0.55936009 1.760443 -0.14757990837097168 -0.07744821906089783 -0.9860131740570068 255.0 60.0 1.0 1.0
1.5319592 0.51379269 1.7663852 -0.15857277810573578 -0.10373525321483612 -0.9818827509880066 255.0 61.0 1.0 1.0
1.5239717 0.52888751 1.7633979 -0.1014847606420517 -0.04598303884267807 -0.9937738180160522 255.0 61.0 1.0 1.0
1.4104415 0.48216876 1.7593886 -0.10370329767465591 -0.011387581005692482 -0.9945430755615234 255.0 62.0 1.0 1.0
1.412648 0.49947834 1.7685133 -0.14352035522460938 -0.05178498476743698 -0.9882915019989014 255.0 62.0 1.0 1.0
1.3070335 0.4573949 1.7732621 -0.08421381562948227 -0.03903277590870857 -0.9956830143928528 255.0 63.0 1.0 1.0
1.2998849 0.47018525 1.7700788 -0.163382887840271 -0.10328845679759979 -0.9811409115791321 255.0 63.0 1.0 1.0
6.0570846 1.7849402 -1.6131388 0.21241545677185059 -0.8261281847953796 0.5219118595123291 23.0 22.0 2.0 1.0
6.0046577 1.8380312 -1.6043605 0.2642103433609009 -0.5759608149528503 -0.7736032605171204 19.0 22.0 2.0 1.0
6.9605694 2.0467019 -1.6542423 0.027432899922132492 -0.9960769414901733 0.08413174748420715 30.0 23.0 2.0 5.0
6.9088635 2.110337 -1.6472838 0.058414142578840256 -0.9929489493370056 0.10315142571926117 20.0 23.0 2.0 5.0
8.0048199 2.3500593 -1.6767008 -0.013421670533716679 -0.9929477572441101 0.11779018491506577 28.0 24.0 2.0 5.0
9.6108971 2.8153589 -1.7441829 0.005337578244507313 -0.993606448173523 0.11277321726083755 30.0 25.0 2.0 5.0
11.083494 3.2435775 -1.7050637 -0.003352772444486618 -0.9913737773895264 0.1310226172208786 13.0 26.0 2.0 5.0
11.045075 3.3582926 -1.7047372 0.040072180330753326 -0.9922021627426147 0.1180209293961525 11.0 26.0 2.0 1.0
11.020381 3.2194977 -1.3960385 0.135255366563797 -0.9618488550186157 0.2378081977367401 17.0 27.0 2.0 5.0
12.437335 3.7755547 -1.5809435 0.12102685868740082 -0.9156855940818787 0.3832393288612366 14.0 27.0 2.0 5.0
16.705105 4.8761301 -1.6643614 -0.05089869722723961 -0.9973576068878174 0.05183788388967514 13.0 28.0 2.0 6.0
12.397027 3.759335 -1.23894 -0.05832281336188316 -0.9978548288345337 0.029738375917077065 21.0 28.0 2.0 5.0
12.654798 3.6892617 -0.91989052 0.0664864033460617 -0.9890545010566711 0.13172292709350586 19.0 29.0 2.0 5.0
12.405403 3.7578945 -0.90484405 -0.12261642515659332 -0.9819410443305969 0.14407315850257874 25.0 29.0 2.0 5.0
11.122558 1.2349875 1.2291955 0.12793560326099396 -0.9850410223007202 -0.11544164270162582 18.0 36.0 2.0 5.0
7.5936871 0.83453912 1.4418347 -0.062419693917036057 -0.9502987265586853 0.3050181567668915 14.0 39.0 2.0 5.0
6.7416148 0.66619331 1.4615489 0.08519860357046127 -0.9780991077423096 0.18990358710289001 10.0 40.0 2.0 5.0
6.7148533 0.73459285 1.4571714 -0.022388197481632233 -0.9952618479728699 0.0946187674999237 10.0 40.0 2.0 5.0
7.8576565 0.85489094 1.921847 0.025483088567852974 -0.9977197647094727 -0.06249861791729927 13.0 41.0 2.0 5.0
1.1917416 0.044567838 -1.5660685 0.11449441313743591 0.10896176099777222 0.9874301552772522 255.0 0.0 1.0 1.0
1.2018728 0.032378521 -1.5787808 0.11449441313743591 0.10896176099777222 0.9874301552772522 255.0 0.0 1.0 1.0
1.2921062 0.057585597 -1.5627335 0.17060185968875885 0.01769142597913742 0.9851812124252319 255.0 1.0 1.0 1.0
1.2977846 0.044250529 -1.5688713 0.17060185968875885 0.01769142597913742 0.9851812124252319 255.0 1.0 1.0 1.0
1.405957 0.070725255 -1.5752729 0.12042631953954697 -0.03708532080054283 0.9920292496681213 255.0 2.0 1.0 1.0
1.4119965 0.056235276 -1.5812099 0.1651504933834076 -0.002269142307341099 0.9862656593322754 255.0 2.0 1.0 1.0
1.5153441 0.084068328 -1.5770609 0.2237563580274582 0.034206852316856384 0.9740446209907532 255.0 3.0 1.0 1.0
1.5189652 0.068341367 -1.5799093 0.1282299906015396 0.11529532074928284 0.985019862651825 255.0 3.0 1.0 1.0
1.6240644 0.097032212 -1.5755216 0.13944807648658752 0.032388776540756226 0.9896996021270752 255.0 4.0 1.0 1.0
1.6422498 0.080904573 -1.5921955 0.20971739292144775 0.10455574095249176 0.9721556901931763 255.0 4.0 1.0 1.0
1.7328577 0.10997953 -1.5699526 0.15323320031166077 0.0718245655298233 0.9855764508247375 253.0 5.0 1.0 1.0
1.7487708 0.092645027 -1.5833385 0.11590500921010971 0.07219308614730835 0.9906332492828369 255.0 5.0 1.0 1.0
1.8657813 0.12469182 -1.5813268 0.13655835390090942 0.04616227373480797 0.9895559549331665 255.0 6.0 1.0 1.0
1.8792289 0.1058635 -1.5916243 0.13670499622821808 0.0463114008307457 0.9895287156105042 255.0 6.0 1.0 1.0
1.9965446 0.13905594 -1.5850239 0.14739318192005157 0.057910919189453125 0.9873811602592468 255.0 7.0 1.0 1.0
2.0010757 0.11834697 -1.5874616 0.13035103678703308 0.0014862708048895001 0.9914668202400208 255.0 7.0 1.0 1.0
2.1469901 0.15481213 -1.5983117 0.12881338596343994 0.007636497728526592 0.9916393756866455 255.0 8.0 1.0 1.0
2.1485498 0.132339 -1.5982598 0.08516296744346619 0.00767267681658268 0.9963374733924866 255.0 8.0 1.0 1.0
2.2824783 0.17014599 -1.5939262 0.14485859870910645 0.04433193802833557 0.9884586930274963 255.0 9.0 1.0 1.0
2.2841914 0.14625323 -1.5938711 0.14485859870910645 0.04433193802833557 0.9884586930274963 255.0 9.0 1.0 1.0
2.4422424 0.1862874 -1.5992211 0.08735308796167374 0.017804274335503578 0.9960182309150696 253.0 10.0 1.0 1.0
2.4441159 0.16072072 -1.5991622 0.10548765957355499 0.028501151129603386 0.9940121173858643 253.0 10.0 1.0 1.0
2.623661 0.20511714 -1.610315 0.1736878901720047 0.047949835658073425 0.9836326837539673 253.0 11.0 1.0 1.0
2.6359301 0.17834741 -1.6165217 0.10913956165313721 -0.0065319836139678955 0.994005024433136 255.0 11.0 1.0 1.0
2.7969518 0.22346129 -1.6066809 0.17417903244495392 0.08300943672657013 0.9812089204788208 241.0 12.0 1.0 1.0
2.813041 0.19514772 -1.6145726 0.12365367263555527 0.128820538520813 0.9839284420013428 247.0 12.0 1.0 1.0
3.0131156 0.24483769 -1.6191788 0.1781284213066101 0.03269771486520767 0.9834638833999634 244.0 13.0 1.0 1.0
3.0296359 0.21429271 -1.6266686 0.1075693666934967 0.031350113451480865 0.9937031865119934 247.0 13.0 1.0 1.0
3.2279627 0.26609522 -1.6199174 0.12528514862060547 0.017235269770026207 0.9919710755348206 226.0 14.0 1.0 1.0
3.2484653 0.2335889 -1.6287954 0.1328461617231369 0.041046492755413055 0.9902864098548889 235.0 14.0 1.0 1.0
3.4769249 0.29070133 -1.6263205 0.15186668932437897 -0.0006922316388227046 0.9884007573127747 223.0 15.0 1.0 1.0
3.4906809 0.25509176 -1.6313117 0.15069344639778137 0.04214831069111824 0.9876816272735596 220.0 15.0 1.0 1.0
3.4124463 0.98634315 -1.5438915 0.1106228232383728 0.07183970510959625 0.9912627339363098 226.0 16.0 1.0 1.0
3.4367771 0.95450771 -1.5501958 0.10573701560497284 0.02835536003112793 0.9939898252487183 229.0 16.0 1.0 1.0
3.7055764 1.0673424 -1.5529816 0.14037653803825378 0.04021444544196129 0.989281177520752 229.0 17.0 1.0 1.0
3.7309055 1.0324645 -1.5588777 0.12121541798114777 0.023768717423081398 0.9923416376113892 226.0 17.0 1.0 1.0
4.0197167 1.1529983 -1.5540794 0.16336491703987122 0.0626695454120636 0.984573245048523 187.0 18.0 1.0 1.0
4.0352397 1.1118571 -1.5553801 0.0846361368894577 0.03684143349528313 0.9957306385040283 184.0 18.0 1.0 1.0
