ply
format ascii 1.0
element vertex 414
property float x
property float y
property float z
property float nx
property float ny
property float nz
property float intensity
property float ring
property float return
property float label
end_header
-0.93772763 -0.1010811 0.07980831 0.023046569898724556 0.9976322650909424 -0.06479735672473907 255.0 35.0 1.0 1.0
-0.95011038 -0.11218677 0.10568324 0.023046569898724556 0.9976322650909424 -0.06479735672473907 255.0 36.0 1.0 1.0
-0.96308184 -0.10347514 0.10701898 0.023046569898724556 0.9976322650909424 -0.06479735672473907 255.0 36.0 1.0 1.0
-0.96285611 -0.11336764 0.13250081 0.031703297048807144 0.9993295669555664 -0.018311675637960434 255.0 37.0 1.0 1.0
-0.94427449 -0.10117359 0.1297974 0.031703297048807144 0.9993295669555664 -0.018311675637960434 255.0 37.0 1.0 1.0
-0.94744366 -0.11109903 0.15539774 0.027696041390299797 0.9983617067337036 -0.050067704170942307 255.0 38.0 1.0 1.0
-0.95246917 -0.10156851 0.15605505 0.027696041390299797 0.9983617067337036 -0.050067704170942307 255.0 38.0 1.0 1.0
-0.9236567 -0.10804192 0.17620806 0.009155426174402237 0.9979053735733032 -0.0640404224395752 255.0 39.0 1.0 1.0
-0.95208305 -0.10122325 0.18144256 0.009155426174402237 0.9979053735733032 -0.0640404224395752 255.0 39.0 1.0 1.0
-0.92661369 -0.10792359 0.20198107 0.00916990265250206 0.9994832873344421 -0.030808620154857635 255.0 40.0 1.0 1.0
-0.95100808 -0.10063842 0.20707914 0.037110909819602966 0.9975852370262146 -0.058708544820547104 255.0 40.0 1.0 1.0
-0.93270326 -0.10799727 0.22911975 0.037110909819602966 0.9975852370262146 -0.058708544820547104 255.0 41.0 1.0 1.0
-0.94922978 -0.099814296 0.23292921 0.037110909819602966 0.9975852370262146 -0.058708544820547104 255.0 41.0 1.0 1.0
-0.94570279 -0.10885032 0.25872725 0.029158497229218483 0.9994350671768188 -0.016715606674551964 255.0 42.0 1.0 1.0
-0.92758089 -0.096939981 0.25349045 0.009098490700125694 0.9998188614845276 -0.016722025349736214 255.0 42.0 1.0 1.0
-0.95387954 -0.10897196 0.28843266 0.02914988063275814 0.9991397261619568 -0.02949976921081543 255.0 43.0 1.0 1.0
-0.93590128 -0.097006224 0.28268778 0.00451238639652729 0.9999046921730042 -0.013049195520579815 255.0 43.0 1.0 1.0
-0.90450925 -0.10262251 0.29999352 0.012698152102530003 0.9998342394828796 -0.01304827630519867 255.0 44.0 1.0 1.0
-0.94331461 -0.096967399 0.31253025 0.00451238639652729 0.9999046921730042 -0.013049195520579815 255.0 44.0 1.0 1.0
-0.94492078 -0.10635714 0.34184176 0.045708104968070984 0.9979891777038574 -0.0439116507768631 255.0 45.0 1.0 1.0
-0.89353758 -0.091153279 0.32290512 0.02126166597008705 0.9988074898719788 -0.043947651982307434 255.0 45.0 1.0 1.0
-0.90599316 -0.10109393 0.35545614 0.04563760384917259 0.9964497685432434 -0.07074756175279617 255.0 46.0 1.0 1.0
-0.92182064 -0.093062311 0.36128134 0.012564175762236118 0.999191403388977 -0.038193587213754654 255.0 46.0 1.0 1.0
-0.91446394 -0.10125633 0.38785571 0.013014496304094791 0.9991856217384338 -0.038193367421627045 255.0 47.0 1.0 1.0
-0.91912723 -0.09201882 0.38942176 0.012564175762236118 0.999191403388977 -0.038193587213754654 255.0 47.0 1.0 1.0
-0.90801752 -0.2886706 0.43327561 0.01778891310095787 0.997988224029541 -0.06085285171866417 250.0 48.0 1.0 1.0
-0.90400952 -0.27700362 0.42997709 0.01778891310095787 0.997988224029541 -0.06085285171866417 253.0 48.0 1.0 1.0
-0.89246178 -0.28482461 0.45780462 0.01776176504790783 0.9964652061462402 -0.08210764080286026 247.0 49.0 1.0 1.0
-0.8919434 -0.2743924 0.45606157 0.017401566728949547 0.9965009689331055 -0.08174975216388702 250.0 49.0 1.0 1.0
-0.88962162 -0.28516868 0.48951286 0.036358654499053955 0.9961165189743042 -0.08018799126148224 235.0 50.0 1.0 1.0
-0.88915646 -0.27477604 0.48766959 0.017374172806739807 0.9949323534965515 -0.09903394430875778 244.0 50.0 1.0 1.0
-0.87884814 -0.2833049 0.51787609 0.03615244850516319 0.9904671311378479 -0.13292047381401062 232.0 51.0 1.0 1.0
-0.88175035 -0.27406618 0.5178892 0.03615244850516319 0.9904671311378479 -0.13292047381401062 232.0 51.0 1.0 1.0
-0.88671625 -0.28724751 0.55868983 0.024032022804021835 0.9923633337020874 -0.12098531424999237 235.0 52.0 1.0 1.0
-0.86672354 -0.27079809 0.54430962 0.024032022804021835 0.9923633337020874 -0.12098531424999237 223.0 52.0 1.0 1.0
-0.86706614 -0.28264052 0.58357209 0.05606275424361229 0.9944655299186707 -0.08885548263788223 223.0 53.0 1.0 1.0
-0.87639272 -0.27553686 0.58789629 0.03501259535551071 0.9944337010383606 -0.09937682002782822 232.0 53.0 1.0 1.0
-0.86200279 -0.28305402 0.61967373 0.028478851541876793 0.9940099716186523 -0.10551386326551437 232.0 54.0 1.0 1.0
-0.86490184 -0.27399144 0.6196866 0.024205001071095467 0.9945631623268127 -0.10128288716077805 220.0 54.0 1.0 1.0
-0.85529423 -0.2829088 0.65653008 0.02105209417641163 0.9971638321876526 -0.07225740700960159 223.0 55.0 1.0 1.0
-0.85202891 -0.27195904 0.65183228 0.03197559341788292 0.997673511505127 -0.06021008640527725 226.0 55.0 1.0 1.0
-0.85865027 -0.28657416 0.70397562 0.03190188109874725 0.9953736066818237 -0.09062941372394562 220.0 56.0 1.0 1.0
-0.8465485 -0.27272704 0.69171369 0.03190188109874725 0.9953736066818237 -0.09062941372394562 217.0 56.0 1.0 1.0
-0.83306932 -0.28089803 0.73003286 0.02564356103539467 0.997310996055603 -0.06865290552377701 214.0 57.0 1.0 1.0
-0.83594602 -0.27213773 0.73004532 0.012317548505961895 0.9983897805213928 -0.05537344142794609 217.0 57.0 1.0 1.0
-0.82603568 -0.28150582 0.77442539 0.00569520378485322 0.9992124438285828 -0.03926940634846687 208.0 58.0 1.0 1.0
-0.82891876 -0.27281845 0.77443779 0.005696137901395559 0.9993762373924255 -0.03485295921564102 211.0 58.0 1.0 1.0
-0.84339905 -0.29092994 0.84783965 0.023409219458699226 0.9989836812019348 -0.03851855918765068 226.0 59.0 1.0 1.0
-0.84087282 -0.28023466 0.84234297 0.008223900571465492 0.9989026784896851 -0.04610714316368103 226.0 59.0 1.0 1.0
-0.82127315 -0.28744286 0.88736033 0.03295011445879936 0.9992674589157104 -0.019461052492260933 226.0 60.0 1.0 1.0
-0.83218259 -0.28148457 0.89593822 0.03295011445879936 0.9992674589157104 -0.019461052492260933 235.0 60.0 1.0 1.0
-0.82928807 -0.29521886 0.96585459 0.015516391955316067 0.9994118809700012 -0.030581476166844368 238.0 61.0 1.0 1.0
-0.83231199 -0.28649566 0.9658671 0.015516391955316067 0.9994118809700012 -0.030581476166844368 238.0 61.0 1.0 1.0
-0.83846498 -0.30403945 1.0567682 0.00783298909664154 0.9994540810585022 -0.032095249742269516 255.0 62.0 1.0 1.0
-0.8391428 -0.29436862 1.0537249 -0.005849104840308428 0.9998132586479187 -0.01842186227440834 255.0 62.0 1.0 1.0
-0.81902248 -0.30380672 1.1231331 -0.0023400746285915375 0.999208927154541 -0.03970147669315338 255.0 63.0 1.0 1.0
-0.82444853 -0.29601601 1.1263021 -0.0023400746285915375 0.999208927154541 -0.03970147669315338 255.0 63.0 1.0 1.0
-0.48031381 -0.01806685 -0.63395065 0.19020745158195496 -0.006994003430008888 0.9817190170288086 241.0 0.0 1.0 1.0
-0.47768 -0.022995748 -0.63077396 0.19020745158195496 -0.006994003430008888 0.9817190170288086 238.0 0.0 1.0 1.0
-0.51057011 -0.022696102 -0.62002003 0.13614265620708466 0.005745438393205404 0.9906725883483887 235.0 1.0 1.0 1.0
-0.51030654 -0.028052872 -0.62002659 0.1981857270002365 0.005684400908648968 0.9801479578018188 232.0 1.0 1.0 1.0
-0.57350463 -0.028548252 -0.64484698 0.19364139437675476 0.06212329491972923 0.9791035652160645 253.0 2.0 1.0 1.0
-0.55189091 -0.033318099 -0.62099236 0.19364139437675476 0.06212329491972923 0.9791035652160645 232.0 2.0 1.0 1.0
-0.60229105 -0.032945674 -0.62888831 0.19367308914661407 -0.05943979695439339 0.9792638421058655 244.0 3.0 1.0 1.0
-0.58807468 -0.038383532 -0.61448514 0.15653572976589203 -0.02118093892931938 0.9874452352523804 238.0 3.0 1.0 1.0
-0.62391925 -0.03666332 -0.60715491 0.23121091723442078 0.06752506643533707 0.9705575704574585 223.0 4.0 1.0 1.0
-0.64070588 -0.044369753 -0.62385792 0.23121091723442078 0.06752506643533707 0.9705575704574585 238.0 4.0 1.0 1.0
-0.68859619 -0.042828038 -0.62556684 0.23956674337387085 -0.09529049694538116 0.9661923050880432 250.0 5.0 1.0 1.0
-0.66147381 -0.04815118 -0.60143435 0.23956674337387085 -0.09529049694538116 0.9661923050880432 229.0 5.0 1.0 1.0
-0.72098136 -0.047123525 -0.61259508 0.18521922826766968 0.014025408774614334 0.9825971126556396 241.0 6.0 1.0 1.0
-0.70826548 -0.05377524 -0.60227489 0.18521922826766968 0.014025408774614334 0.9825971126556396 238.0 6.0 1.0 1.0
-0.76517421 -0.052013937 -0.6088326 0.18578512966632843 0.027477674186229706 0.9822060465812683 250.0 7.0 1.0 1.0
-0.77084374 -0.060517725 -0.61380792 0.18578512966632843 0.027477674186229706 0.9822060465812683 253.0 7.0 1.0 1.0
-0.80603379 -0.056624956 -0.60126311 0.15231159329414368 0.06314799934625626 0.9863131046295166 255.0 8.0 1.0 1.0
-0.81820709 -0.066092417 -0.61080837 0.15336938202381134 0.06313754618167877 0.9861498475074768 255.0 8.0 1.0 1.0
-0.85323566 -0.061876975 -0.59691507 0.1220380887389183 0.01751723699271679 0.9923708438873291 250.0 9.0 1.0 1.0
-0.85254318 -0.070820004 -0.59692615 0.1473272442817688 0.01745656691491604 0.988933801651001 255.0 9.0 1.0 1.0
-0.93069428 -0.068920799 -0.6103434 0.14684733748435974 -0.0825040265917778 0.9857124090194702 255.0 10.0 1.0 1.0
-0.93326229 -0.078953072 -0.61254102 0.08534536510705948 -0.02032105252146721 0.9961442351341248 255.0 10.0 1.0 1.0
-0.99225968 -0.075204186 -0.60976893 0.10407880693674088 0.3351795971393585 0.9363878965377808 255.0 11.0 1.0 1.0
-0.97441763 -0.08415243 -0.59935033 0.10407880693674088 0.3351795971393585 0.9363878965377808 255.0 11.0 1.0 1.0
-1.0336415 -0.079981662 -0.59438944 0.017178336158394814 0.8889375925064087 0.4577062427997589 255.0 12.0 1.0 1.0
-1.0154542 -0.08931037 -0.58447272 0.017178336158394814 0.8889375925064087 0.4577062427997589 255.0 12.0 1.0 1.0
-1.0041978 -0.079014868 -0.54018444 0.019303826615214348 0.9989266991615295 0.04210416227579117 255.0 13.0 1.0 1.0
-1.0068318 -0.089848451 -0.54208428 0.019303826615214348 0.9989266991615295 0.04210416227579117 255.0 13.0 1.0 1.0
-1.0187839 -0.081267089 -0.5117203 7.450575503753498e-05 0.999999463558197 0.0010758626740425825 255.0 14.0 1.0 1.0
-1.0107518 -0.091306798 -0.50815904 7.450575503753498e-05 0.999999463558197 0.0010758626740425825 255.0 14.0 1.0 1.0
-0.99261612 -0.080295876 -0.46468911 0.007488379720598459 0.9984834790229797 -0.05454188957810402 255.0 15.0 1.0 1.0
-0.99533653 -0.091024779 -0.46638975 0.007488379720598459 0.9984834790229797 -0.05454188957810402 255.0 15.0 1.0 1.0
-1.01141 -0.28955534 -0.45728299 0.021156318485736847 0.9991153478622437 -0.036343079060316086 255.0 16.0 1.0 1.0
-1.0118452 -0.30118576 -0.45888898 0.01814405620098114 0.9989557266235352 -0.04193129017949104 255.0 16.0 1.0 1.0
-1.0054176 -0.28675413 -0.42102146 0.0190631914883852 0.9997985363006592 -0.006273611448705196 255.0 17.0 1.0 1.0
-0.99524444 -0.29517788 -0.41805404 0.0190631914883852 0.9997985363006592 -0.006273611448705196 255.0 17.0 1.0 1.0
-0.98746169 -0.2803961 -0.38141525 0.017192518338561058 0.9995697736740112 -0.023764578625559807 255.0 18.0 1.0 1.0
-0.99887043 -0.29496488 -0.38698938 0.017192518338561058 0.9995697736740112 -0.023764578625559807 255.0 18.0 1.0 1.0
-1.0044925 -0.28411403 -0.35634348 0.0045492034405469894 0.9997548460960388 -0.021669920533895493 255.0 19.0 1.0 1.0
-1.0014675 -0.29463094 -0.35635799 0.0045492034405469894 0.9997548460960388 -0.021669920533895493 255.0 19.0 1.0 1.0
-0.98770779 -0.27849916 -0.32021388 0.012387440539896488 0.9989871978759766 -0.043255917727947235 255.0 20.0 1.0 1.0
-0.99940842 -0.29312199 -0.32498127 0.012387440539896488 0.9989871978759766 -0.043255917727947235 255.0 20.0 1.0 1.0
-0.98455691 -0.27672705 -0.28987318 -0.0010250606574118137 0.9998642802238464 -0.016447149217128754 255.0 21.0 1.0 1.0
-1.0111791 -0.29564017 -0.2985884 -0.0010250606574118137 0.9998642802238464 -0.016447149217128754 255.0 21.0 1.0 1.0
-0.98058105 -0.27473053 -0.25985041 0.009752706624567509 0.9993783831596375 -0.033879078924655914 255.0 22.0 1.0 1.0
-0.98510325 -0.28715801 -0.26183632 0.009752706624567509 0.9993783831596375 -0.033879078924655914 255.0 22.0 1.0 1.0
-0.97940105 -0.27370188 -0.23151715 0.0033074363600462675 0.9996618032455444 -0.02579115331172943 255.0 23.0 1.0 1.0
-0.98772961 -0.28721017 -0.2341859 0.0033074363600462675 0.9996618032455444 -0.02579115331172943 255.0 23.0 1.0 1.0
-0.99252057 -0.27682734 -0.20667449 0.0033045029267668724 0.9987752437591553 -0.04936511814594269 255.0 24.0 1.0 1.0
-0.98957443 -0.28721991 -0.20668878 0.0033045029267668724 0.9987752437591553 -0.04936511814594269 255.0 24.0 1.0 1.0
-0.97852695 -0.27224389 -0.17644346 0.006186290178447962 0.9977288246154785 -0.06707240641117096 255.0 25.0 1.0 1.0
-0.96426785 -0.27921644 -0.17441244 0.006983872037380934 0.9976155757904053 -0.06866136193275452 255.0 25.0 1.0 1.0
-0.97885358 -0.27200261 -0.14950457 0.0189046673476696 0.9989269375801086 -0.04227983206510544 255.0 26.0 1.0 1.0
-0.97215605 -0.28115812 -0.14893913 0.006198246497660875 0.999657154083252 -0.025440962985157967 255.0 26.0 1.0 1.0
-0.97851002 -0.27139133 -0.12295446 0.01884615421295166 0.9958351254463196 -0.0892033576965332 255.0 27.0 1.0 1.0
-0.97180569 -0.28054157 -0.12249046 0.01884615421295166 0.9958351254463196 -0.0892033576965332 255.0 27.0 1.0 1.0
-0.98898071 -0.27394515 -0.097548887 0.016907114535570145 0.9959774017333984 -0.08799510449171066 255.0 28.0 1.0 1.0
-0.97841072 -0.28210494 -0.096811302 0.052037809044122696 0.9972378015518188 -0.0529971607029438 255.0 28.0 1.0 1.0
-0.98729175 -0.27314427 -0.070885628 0.04479419067502022 0.9976393580436707 -0.05205174908041954 255.0 29.0 1.0 1.0
-0.97671372 -0.28128439 -0.070352592 0.05255740135908127 0.9968252778053284 -0.05980902910232544 255.0 29.0 1.0 1.0
-0.97332603 -0.26915175 -0.04399129 0.04475283995270729 0.9967183470726013 -0.06745301187038422 255.0 30.0 1.0 1.0
-0.96662158 -0.27824444 -0.043833643 0.04475283995270729 0.9967183470726013 -0.06745301187038422 255.0 30.0 1.0 1.0
-0.9586885 -0.26497853 -0.017971816 0.018654871731996536 0.998968243598938 -0.0414062961935997 255.0 31.0 1.0 1.0
-0.94818079 -0.27281731 -0.017845789 0.018654871731996536 0.998968243598938 -0.0414062961935997 255.0 31.0 1.0 1.0
-0.97884113 -0.08510875 0.0077475891 0.031047556549310684 0.997765064239502 -0.05916813760995865 255.0 32.0 1.0 1.0
-0.95003617 -0.092683338 0.0074982522 0.031047556549310684 0.997765064239502 -0.05916813760995865 255.0 32.0 1.0 1.0
-0.94647366 -0.082026079 0.031713184 0.031047556549310684 0.997765064239502 -0.05916813760995865 255.0 33.0 1.0 1.0
-0.97342843 -0.094626181 0.032650217 0.019395533949136734 0.9965640902519226 -0.08052245527505875 255.0 33.0 1.0 1.0
-0.98114932 -0.085023217 0.058082212 0.019430866464972496 0.9983795285224915 -0.05348734185099602 255.0 34.0 1.0 1.0
-0.95636785 -0.093016997 0.056644764 0.019430866464972496 0.9983795285224915 -0.05348734185099602 255.0 34.0 1.0 1.0
-0.97140813 -0.084049329 0.08254803 0.012298648245632648 0.9978219270706177 -0.06480967998504639 255.0 35.0 1.0 1.0
-0.93477917 -0.090806536 0.079482198 0.012298648245632648 0.9978219270706177 -0.06480967998504639 255.0 35.0 1.0 1.0
-0.92938602 -0.080161728 0.10307515 0.009445264004170895 0.9982063174247742 -0.059118401259183884 255.0 36.0 1.0 1.0
-0.96808207 -0.09369266 0.10747328 0.012298648245632648 0.9978219270706177 -0.06480967998504639 255.0 36.0 1.0 1.0
-0.96592951 -0.082962938 0.13253959 0.027704158797860146 0.998654305934906 -0.04384124279022217 255.0 37.0 1.0 1.0
-0.93740374 -0.090457484 0.12872398 0.009460225701332092 0.999787449836731 -0.01832006685435772 255.0 37.0 1.0 1.0
-0.9347176 -0.079852946 0.15285724 0.027696041390299797 0.9983617067337036 -0.050067704170942307 255.0 38.0 1.0 1.0
-0.94956207 -0.091145106 0.1554236 0.027696041390299797 0.9983617067337036 -0.050067704170942307 255.0 38.0 1.0 1.0
-0.92658073 -0.078871079 0.17624554 0.02212422341108322 0.9977028369903564 -0.06402742862701416 255.0 39.0 1.0 1.0
-0.96483952 -0.092285611 0.18369387 0.02212422341108322 0.9977028369903564 -0.06402742862701416 255.0 39.0 1.0 1.0
-0.97238332 -0.082236126 0.21134314 0.0073876772075891495 0.9982455372810364 -0.05874741077423096 255.0 40.0 1.0 1.0
-0.91310138 -0.08694157 0.19861595 0.0073876772075891495 0.9982455372810364 -0.05874741077423096 255.0 40.0 1.0 1.0
-0.90076774 -0.075653695 0.22061357 0.009082184173166752 0.998026967048645 -0.06212679669260979 255.0 41.0 1.0 1.0
-0.95023429 -0.089795463 0.23294234 0.0073876772075891495 0.9982455372810364 -0.05874741077423096 255.0 41.0 2.0 1.0
-0.92555821 -0.077086575 0.25246555 0.009098490700125694 0.9998188614845276 -0.016722025349736214 255.0 42.0 1.0 1.0
-0.95545918 -0.089642212 0.26085287 0.009098490700125694 0.9998188614845276 -0.016722025349736214 255.0 42.0 1.0 1.0
-0.94536054 -0.077914543 0.28501621 0.00451238639652729 0.9999046921730042 -0.013049195520579815 255.0 43.0 1.0 1.0
-0.92924762 -0.086426124 0.28039774 0.00451238639652729 0.9999046921730042 -0.013049195520579815 255.0 43.0 1.0 1.0
-0.91484201 -0.074661136 0.30253533 0.02125917188823223 0.9986902475357056 -0.046537891030311584 255.0 44.0 1.0 1.0
-0.93293953 -0.085976489 0.30878583 0.00451238639652729 0.9999046921730042 -0.013049195520579815 255.0 44.0 1.0 1.0
-0.92901582 -0.075018294 0.3351118 0.02126166597008705 0.9988074898719788 -0.043947651982307434 255.0 45.0 1.0 1.0
-0.92444432 -0.084422737 0.33374617 0.02126166597008705 0.9988074898719788 -0.043947651982307434 255.0 45.0 1.0 1.0
-0.90870225 -0.07247518 0.35549283 0.012564175762236118 0.999191403388977 -0.038193587213754654 255.0 46.0 1.0 1.0
-0.9190433 -0.082998365 0.35984093 0.012564175762236118 0.999191403388977 -0.038193587213754654 255.0 46.0 1.0 1.0
-0.90247399 -0.071226835 0.38167712 0.004586139228194952 0.9997420907020569 -0.02224469557404518 255.0 47.0 1.0 1.0
-0.90903616 -0.081340782 0.38477308 0.012564175762236118 0.999191403388977 -0.038193587213754654 255.0 47.0 1.0 1.0
-0.91311872 -0.25890395 0.43166366 0.01778891310095787 0.997988224029541 -0.06085285171866417 247.0 48.0 1.0 1.0
-0.91037238 -0.268471 0.43165052 0.01778891310095787 0.997988224029541 -0.06085285171866417 253.0 48.0 1.0 1.0
-0.88712251 -0.25261933 0.45082253 0.017401566728949547 0.9965009689331055 -0.08174975216388702 244.0 49.0 1.0 1.0
-0.89823282 -0.26597658 0.4578352 0.017401566728949547 0.9965009689331055 -0.08174975216388702 250.0 49.0 1.0 1.0
-0.89130902 -0.25502899 0.48584321 0.03337448090314865 0.9954991936683655 -0.08869831264019012 241.0 50.0 1.0 1.0
-0.88181055 -0.26235682 0.48211733 0.017374172806739807 0.9949323534965515 -0.09903394430875778 238.0 50.0 1.0 1.0
-0.88058889 -0.25352269 0.51400602 0.024032022804021835 0.9923633337020874 -0.12098531424999237 229.0 51.0 1.0 1.0
-0.88793319 -0.26573598 0.51986295 0.03615244850516319 0.9904671311378479 -0.13292047381401062 232.0 51.0 1.0 1.0
-0.86890751 -0.25154099 0.542283 0.033218078315258026 0.9908339381217957 -0.13093756139278412 226.0 52.0 1.0 1.0
-0.87281609 -0.26261333 0.5463829 0.04146777093410492 0.9915311336517334 -0.12307125329971313 223.0 52.0 1.0 1.0
-0.86902541 -0.2532714 0.5793035 0.03501259535551071 0.9944337010383606 -0.09937682002782822 229.0 53.0 1.0 1.0
-0.8566637 -0.25946227 0.572824 0.03501259535551071 0.9944337010383606 -0.09937682002782822 223.0 53.0 1.0 1.0
-0.87361974 -0.25664517 0.62197202 0.03501259535551071 0.9944337010383606 -0.09937682002782822 226.0 54.0 1.0 1.0
-0.87722349 -0.26771936 0.62647045 0.05606275424361229 0.9944655299186707 -0.08885548263788223 232.0 54.0 1.0 1.0
-0.85133314 -0.25212938 0.64715105 0.03197559341788292 0.997673511505127 -0.06021008640527725 220.0 55.0 1.0 1.0
-0.85484701 -0.26294258 0.65184933 0.03197559341788292 0.997673511505127 -0.06021008640527725 220.0 55.0 1.0 1.0
-0.83693743 -0.25033557 0.67946792 0.014300933107733727 0.9983559250831604 -0.055507857352495193 208.0 56.0 1.0 1.0
-0.84032291 -0.26097068 0.68436575 0.03190188109874725 0.9953736066818237 -0.09062941372394562 202.0 56.0 1.0 1.0
-0.86209106 -0.26067498 0.74795765 0.012317548505961895 0.9983897805213928 -0.05537344142794609 232.0 57.0 1.0 1.0
-0.84758079 -0.26604047 0.73772639 0.012317548505961895 0.9983897805213928 -0.05537344142794609 220.0 57.0 1.0 1.0
-0.825858 -0.25268319 0.76650411 0.005696137901395559 0.9993762373924255 -0.03485295921564102 208.0 58.0 1.0 1.0
-0.84030765 -0.26674509 0.78241748 0.005696137901395559 0.9993762373924255 -0.03485295921564102 220.0 58.0 1.0 1.0
-0.84100974 -0.26074842 0.8368631 0.021033428609371185 0.9986056685447693 -0.04841932654380798 223.0 59.0 1.0 1.0
-0.83549064 -0.26867941 0.83409613 0.00626640859991312 0.9987290501594543 -0.05001125857234001 220.0 59.0 1.0 1.0
-0.83521628 -0.26305094 0.89311242 0.023409219458699226 0.9989836812019348 -0.03851855918765068 232.0 60.0 1.0 1.0
-0.84309423 -0.27526644 0.90452099 0.023409219458699226 0.9989836812019348 -0.03851855918765068 238.0 60.0 1.0 1.0
-0.83555537 -0.26807362 0.96294117 0.016759352758526802 0.9997784495353699 -0.012733920477330685 244.0 61.0 1.0 1.0
-0.84040093 -0.27937061 0.97179556 0.011442423798143864 0.9993339776992798 -0.03465184196829796 250.0 61.0 1.0 1.0
-0.8303923 -0.27182359 1.0354186 0.023018836975097656 0.9997202157974243 -0.005447835195809603 250.0 62.0 1.0 1.0
-0.83241373 -0.28217742 1.0415184 0.023018836975097656 0.9997202157974243 -0.005447835195809603 253.0 62.0 1.0 1.0
-0.82579768 -0.27701581 1.1200187 0.013859218917787075 0.9988682866096497 -0.045498814433813095 255.0 63.0 1.0 1.0
-0.82984179 -0.28807816 1.1294762 0.013859218917787075 0.9988682866096497 -0.045498814433813095 255.0 63.0 1.0 1.0
-0.90077955 -0.075627193 0.22061393 0.009082184173166752 0.998026967048645 -0.06212679669260979 255.0 41.0 1.0 1.0
-0.95024639 -0.089767829 0.23294261 0.0073876772075891495 0.9982455372810364 -0.05874741077423096 255.0 41.0 2.0 1.0
-0.47575054 -0.0078900745 -0.62756968 0.19020745158195496 -0.006994003430008888 0.9817190170288086 235.0 0.0 1.0 1.0
-0.47322172 -0.012822121 -0.62439281 0.19020745158195496 -0.006994003430008888 0.9817190170288086 244.0 0.0 1.0 1.0
-0.53643698 -0.012502406 -0.65082139 0.13614265620708466 0.005745438393205404 0.9906725883483887 253.0 1.0 1.0 1.0
-0.52353472 -0.017722519 -0.63541919 0.13614265620708466 0.005745438393205404 0.9906725883483887 241.0 1.0 1.0 1.0
-0.54734308 -0.015764138 -0.61500305 0.13587673008441925 0.06273455917835236 0.9887374639511108 235.0 2.0 1.0 1.0
-0.56845707 -0.022305798 -0.63887161 0.13587673008441925 0.06273455917835236 0.9887374639511108 250.0 2.0 1.0 1.0
-0.60563052 -0.02036546 -0.63175261 0.23555691540241241 -0.058882053941488266 0.9700751304626465 241.0 3.0 1.0 1.0
-0.59430122 -0.026246449 -0.62023163 0.19367308914661407 -0.05943979695439339 0.9792638421058655 235.0 3.0 1.0 1.0
-0.63317484 -0.023849906 -0.61548388 0.23121091723442078 0.06752506643533707 0.9705575704574585 229.0 4.0 1.0 1.0
-0.64150423 -0.030892007 -0.62383914 0.23121091723442078 0.06752506643533707 0.9705575704574585 238.0 4.0 1.0 1.0
-0.66563141 -0.027404303 -0.60408908 0.23087811470031738 -0.0861586332321167 0.9691604971885681 235.0 5.0 1.0 1.0
-0.6623466 -0.034235798 -0.6014151 0.23956674337387085 -0.09529049694538116 0.9661923050880432 238.0 5.0 1.0 1.0
-0.7248717 -0.032090995 -0.61515737 0.18523016571998596 0.008869092911481857 0.9826550483703613 244.0 6.0 1.0 1.0
-0.71229637 -0.03903966 -0.60483712 0.18523016571998596 0.008869092911481857 0.9826550483703613 235.0 6.0 1.0 1.0
-0.76610529 -0.035921928 -0.60881168 0.18578512966632843 0.027477674186229706 0.9822060465812683 250.0 7.0 1.0 1.0
-0.76568931 -0.043954112 -0.60882133 0.18578512966632843 0.027477674186229706 0.9822060465812683 244.0 7.0 1.0 1.0
-0.80705243 -0.039674692 -0.60124141 0.15231159329414368 0.06314799934625626 0.9863131046295166 253.0 8.0 1.0 1.0
-0.80980176 -0.048322484 -0.60363525 0.15231159329414368 0.06314799934625626 0.9863131046295166 255.0 8.0 1.0 1.0
-0.84123755 -0.04327539 -0.58775353 0.1220380887389183 0.01751723699271679 0.9923708438873291 244.0 9.0 1.0 1.0
-0.87351274 -0.054084741 -0.61061209 0.1220380887389183 0.01751723699271679 0.9923708438873291 255.0 9.0 1.0 1.0
-0.90517837 -0.047963277 -0.59283561 0.08351335674524307 -0.08311686664819717 0.9930342435836792 255.0 10.0 1.0 1.0
-0.92134714 -0.058494195 -0.60377467 0.08351335674524307 -0.08311686664819717 0.9930342435836792 255.0 10.0 1.0 1.0
-0.98681152 -0.053976115 -0.60557145 0.15854188799858093 0.3327474594116211 0.9295932650566101 255.0 11.0 1.0 1.0
-0.9827885 -0.064099967 -0.60349762 0.15854188799858093 0.3327474594116211 0.9295932650566101 255.0 11.0 1.0 1.0
-1.0281664 -0.057866629 -0.5903917 0.03519243746995926 0.8885180354118347 0.4574901759624481 255.0 12.0 1.0 1.0
-1.0205771 -0.068185546 -0.58643281 0.017178336158394814 0.8889375925064087 0.4577062427997589 255.0 12.0 1.0 1.0
-1.0197276 -0.058696475 -0.54770565 7.437425665557384e-05 0.9982345104217529 0.05939525365829468 255.0 13.0 1.0 1.0
-1.01906 -0.069383286 -0.54771858 0.019303826615214348 0.9989266991615295 0.04210416227579117 255.0 13.0 1.0 1.0
-1.0024084 -0.058813814 -0.50275892 0.010091353207826614 0.999769389629364 -0.01895810477435589 255.0 14.0 1.0 1.0
-1.0017411 -0.069319576 -0.50277168 0.010091353207826614 0.999769389629364 -0.01895810477435589 255.0 14.0 1.0 1.0
-0.99770856 -0.059633218 -0.46635142 0.010091353207826614 0.999769389629364 -0.01895810477435589 255.0 15.0 1.0 1.0
-1.0042691 -0.070591182 -0.46973941 0.007488379720598459 0.9984834790229797 -0.05454188957810402 255.0 15.0 1.0 1.0
-1.0172689 -0.26823932 -0.45725077 0.013901929371058941 0.9992425441741943 -0.036347705870866776 255.0 16.0 1.0 1.0
-0.98609042 -0.27114132 -0.44453499 0.021156318485736847 0.9991153478622437 -0.036343079060316086 255.0 16.0 1.0 1.0
-0.99326247 -0.26087108 -0.41353518 0.02510012872517109 0.9994905591011047 -0.019714608788490295 255.0 17.0 1.0 1.0
-1.0048054 -0.2751745 -0.41951278 0.0190631914883852 0.9997985363006592 -0.006273611448705196 255.0 17.0 1.0 1.0
-0.99313259 -0.25958222 -0.38138369 0.014349060133099556 0.999895453453064 0.0017745430814102292 255.0 18.0 1.0 1.0
-0.99398482 -0.27096266 -0.38278759 0.025100115686655045 0.9994900226593018 -0.01973993144929409 255.0 18.0 1.0 1.0
-1.0065714 -0.26199231 -0.35502264 0.02685898169875145 0.9994045495986938 -0.021662326529622078 255.0 19.0 1.0 1.0
-1.0074337 -0.27351922 -0.35632578 0.0045492034405469894 0.9997548460960388 -0.021669920533895493 255.0 19.0 1.0 1.0
-1.0044326 -0.26054251 -0.3237468 0.012387440539896488 0.9989871978759766 -0.043255917727947235 255.0 20.0 1.0 1.0
-0.99796677 -0.2700665 -0.32257274 0.012387440539896488 0.9989871978759766 -0.043255917727947235 255.0 20.0 1.0 1.0
-0.99387783 -0.25693133 -0.29092929 0.007772253360599279 0.999687910079956 -0.02374204434454441 255.0 21.0 1.0 1.0
-0.96883249 -0.2613515 -0.28441805 -0.0010250606574118137 0.9998642802238464 -0.016447149217128754 255.0 21.0 1.0 1.0
-0.98237735 -0.25309598 -0.25883344 0.007769981399178505 0.9993957877159119 -0.03387966379523277 255.0 22.0 1.0 1.0
-1.0096391 -0.27139756 -0.26673353 0.009752706624567509 0.9993783831596375 -0.033879078924655914 255.0 22.0 1.0 1.0
-1.0000486 -0.25691795 -0.23502487 0.011394853703677654 0.9996024370193481 -0.025789618492126465 255.0 23.0 1.0 1.0
-0.98600286 -0.2643739 -0.23238456 0.0033074363600462675 0.9996618032455444 -0.02579115331172943 255.0 23.0 1.0 1.0
-0.98671025 -0.25299409 -0.20429236 0.009979406371712685 0.9979982972145081 -0.062449175864458084 255.0 24.0 1.0 1.0
-0.97643304 -0.26130888 -0.20273902 0.007676244247704744 0.9980185627937317 -0.06245045363903046 255.0 24.0 1.0 1.0
-0.9802056 -0.25064114 -0.17573076 0.006186290178447962 0.9977288246154785 -0.06707240641117096 255.0 25.0 1.0 1.0
-0.98515362 -0.26292938 -0.17710772 0.006186290178447962 0.9977288246154785 -0.06707240641117096 255.0 25.0 1.0 1.0
-0.98051053 -0.25038943 -0.14889406 0.015480900183320045 0.9989857077598572 -0.04228232428431511 255.0 26.0 1.0 1.0
-0.97784263 -0.26065788 -0.14890781 0.015480900183320045 0.9989857077598572 -0.04228232428431511 255.0 26.0 1.0 1.0
-0.97629058 -0.24880725 -0.12196747 0.015432978048920631 0.9958933591842651 -0.08920857310295105 255.0 27.0 1.0 1.0
-0.98515719 -0.26208034 -0.12341514 0.015432978048920631 0.9958933591842651 -0.08920857310295105 255.0 27.0 1.0 1.0
-0.97906935 -0.24918225 -0.0960145 0.0308369193226099 0.9943450689315796 -0.1016223281621933 255.0 28.0 1.0 1.0
-0.98026484 -0.26045382 -0.096404038 0.016907114535570145 0.9959774017333984 -0.08799510449171066 255.0 28.0 1.0 1.0
-0.96185446 -0.24449998 -0.068666525 0.030955323949456215 0.9981630444526672 -0.05207907035946846 255.0 29.0 1.0 1.0
-0.97468382 -0.25864863 -0.069774136 0.030955323949456215 0.9981630444526672 -0.05207907035946846 255.0 29.0 1.0 1.0
-0.97875869 -0.24862632 -0.043960337 0.0046458677388727665 0.9991313815116882 -0.04141305759549141 255.0 30.0 1.0 1.0
-0.97611064 -0.25887722 -0.043974057 0.0046458677388727665 0.9991313815116882 -0.04141305759549141 255.0 30.0 1.0 1.0
-0.97566932 -0.24769816 -0.018150503 0.0046458677388727665 0.9991313815116882 -0.04141305759549141 255.0 31.0 1.0 1.0
-0.96916425 -0.25689712 -0.018094361 0.0046458677388727665 0.9991313815116882 -0.04141305759549141 255.0 31.0 1.0 1.0
-0.94049478 -0.06192223 0.0074335774 0.031047556549310684 0.997765064239502 -0.05916813760995865 255.0 32.0 1.0 1.0
-0.97171313 -0.074185111 0.0076925522 0.031047556549310684 0.997765064239502 -0.05916813760995865 255.0 32.0 1.0 1.0
-0.98388916 -0.06441696 0.03295951 0.031047556549310684 0.997765064239502 -0.05916813760995865 255.0 33.0 1.0 1.0
-0.96722466 -0.07353694 0.032404203 0.031047556549310684 0.997765064239502 -0.05916813760995865 255.0 33.0 1.0 1.0
-0.94685292 -0.062059522 0.055969328 0.0123150534927845 0.9991528391838074 -0.03926704078912735 255.0 34.0 1.0 1.0
-0.95412505 -0.07258442 0.056432318 0.019430866464972496 0.9983795285224915 -0.05348734185099602 255.0 34.0 1.0 1.0
-0.9530682 -0.062322225 0.080876231 0.012298648245632648 0.9978219270706177 -0.06480967998504639 255.0 35.0 1.0 1.0
-0.98416966 -0.074694976 0.083578616 0.012298648245632648 0.9978219270706177 -0.06480967998504639 255.0 35.0 1.0 1.0
-0.96260017 -0.062627211 0.10662858 0.009445264004170895 0.9982063174247742 -0.059118401259183884 255.0 36.0 1.0 1.0
-0.95000869 -0.071833782 0.10529306 0.009445264004170895 0.9982063174247742 -0.059118401259183884 255.0 36.0 1.0 1.0
-0.92395008 -0.059858132 0.12658697 0.027704158797860146 0.998654305934906 -0.04384124279022217 255.0 37.0 1.0 1.0
-0.95885217 -0.072186068 0.13146548 0.027704158797860146 0.998654305934906 -0.04384124279022217 255.0 37.0 1.0 1.0
-0.94012326 -0.060422584 0.15352632 0.027696041390299797 0.9983617067337036 -0.050067704170942307 255.0 38.0 1.0 1.0
-0.9394505 -0.070280619 0.15351439 0.027696041390299797 0.9983617067337036 -0.050067704170942307 255.0 38.0 1.0 1.0
-0.94763756 -0.06059489 0.1800005 0.0073960269801318645 0.999373733997345 -0.03460415080189705 255.0 39.0 1.0 1.0
-0.93128574 -0.069381215 0.17700402 0.02212422341108322 0.9977028369903564 -0.06402742862701416 255.0 39.0 1.0 1.0
-0.94267756 -0.059816681 0.20458604 0.0073876772075891495 0.9982455372810364 -0.05874741077423096 255.0 40.0 1.0 1.0
-0.94201159 -0.06970232 0.20457409 0.0073876772075891495 0.9982455372810364 -0.05874741077423096 255.0 40.0 1.0 1.0
-0.95257008 -0.059796371 0.23297928 0.032839901745319366 0.9971714615821838 -0.06760703772306442 255.0 41.0 1.0 1.0
-0.91702354 -0.067266375 0.22442314 0.009082184173166752 0.998026967048645 -0.06212679669260979 255.0 41.0 1.0 1.0
-0.91926146 -0.057126153 0.25038952 0.009098490700125694 0.9998188614845276 -0.016722025349736214 255.0 42.0 1.0 1.0
-0.92247522 -0.06704253 0.25142789 0.009098490700125694 0.9998188614845276 -0.016722025349736214 255.0 42.0 1.0 1.0
-0.94295752 -0.057777528 0.28388894 0.00451238639652729 0.9999046921730042 -0.013049195520579815 255.0 43.0 1.0 1.0
-0.9232083 -0.066315636 0.27811894 0.00451238639652729 0.9999046921730042 -0.013049195520579815 255.0 43.0 1.0 1.0
-0.91620094 -0.055394869 0.30255914 0.02125917188823223 0.9986902475357056 -0.046537891030311584 255.0 44.0 1.0 1.0
-0.9080047 -0.064474106 0.30004242 0.02125917188823223 0.9986902475357056 -0.046537891030311584 255.0 44.0 1.0 1.0
-0.90031809 -0.053694408 0.32430661 0.02126166597008705 0.9988074898719788 -0.043947651982307434 255.0 45.0 1.0 1.0
-0.9372707 -0.065729506 0.33783129 0.02126166597008705 0.9988074898719788 -0.043947651982307434 255.0 45.0 1.0 1.0
-0.93233854 -0.054620646 0.36423698 0.012564175762236118 0.999191403388977 -0.038193587213754654 255.0 46.0 1.0 1.0
-0.90198511 -0.062375765 0.35259825 0.012564175762236118 0.999191403388977 -0.038193587213754654 255.0 46.0 1.0 1.0
-0.90744221 -0.052427333 0.38325459 0.004586139228194952 0.9997420907020569 -0.02224469557404518 255.0 47.0 1.0 1.0
-0.92524546 -0.063180491 0.39101261 0.004586139228194952 0.9997420907020569 -0.02224469557404518 255.0 47.0 1.0 1.0
-0.89014769 -0.23231295 0.41844386 0.005361970514059067 0.9999605417251587 -0.007074788212776184 241.0 48.0 1.0 1.0
-0.90525353 -0.24639736 0.42671204 0.032235756516456604 0.9976274371147156 -0.06083085387945175 253.0 48.0 1.0 1.0
-0.8956967 -0.23479781 0.45260808 0.017401566728949547 0.9965009689331055 -0.08174975216388702 247.0 49.0 1.0 1.0
-0.89320403 -0.24418315 0.4525955 0.017401566728949547 0.9965009689331055 -0.08174975216388702 244.0 49.0 1.0 1.0
-0.88617319 -0.23351687 0.48030245 0.0004962469101883471 0.9926250576972961 -0.12122415751218796 244.0 50.0 1.0 1.0
-0.89053017 -0.24467057 0.48400322 0.03337448090314865 0.9954991936683655 -0.08869831264019012 235.0 50.0 1.0 1.0
-0.87221158 -0.23137011 0.50620836 0.033218078315258026 0.9908339381217957 -0.13093756139278412 220.0 51.0 1.0 1.0
-0.8899402 -0.2460604 0.51793581 0.033218078315258026 0.9908339381217957 -0.13093756139278412 235.0 51.0 1.0 1.0
-0.88393295 -0.23583156 0.54848081 0.01346864178776741 0.9936918020248413 -0.11133408546447754 232.0 52.0 1.0 1.0
-0.88804483 -0.24692376 0.55258107 0.01346864178776741 0.9936918020248413 -0.11133408546447754 235.0 52.0 1.0 1.0
-0.86437249 -0.23230931 0.57286495 0.024032022804021835 0.9923633337020874 -0.12098531424999237 217.0 53.0 1.0 1.0
-0.87489247 -0.24498335 0.58147573 0.03501259535551071 0.9944337010383606 -0.09937682002782822 232.0 53.0 1.0 1.0
-0.85009599 -0.23045702 0.60169977 0.0002617083373479545 0.9978950023651123 -0.06485002487897873 202.0 54.0 1.0 1.0
-0.86673504 -0.24472447 0.61522168 0.03501259535551071 0.9944337010383606 -0.09937682002782822 223.0 54.0 1.0 1.0
-0.8501851 -0.23244968 0.64246863 0.03197559341788292 0.997673511505127 -0.06021008640527725 220.0 55.0 1.0 1.0
-0.85394317 -0.24312133 0.64716744 0.03197559341788292 0.997673511505127 -0.06021008640527725 223.0 55.0 1.0 1.0
-0.84503901 -0.23349006 0.68195122 0.014300933107733727 0.9983559250831604 -0.055507857352495193 211.0 56.0 1.0 1.0
-0.85167402 -0.24495237 0.68930447 0.014300933107733727 0.9983559250831604 -0.055507857352495193 217.0 56.0 1.0 1.0
-0.8525309 -0.23833923 0.7352125 0.012317548505961895 0.9983897805213928 -0.05537344142794609 220.0 57.0 1.0 1.0
-0.84113711 -0.24470818 0.7275362 0.012317548505961895 0.9983897805213928 -0.05537344142794609 217.0 57.0 1.0 1.0
-0.83672571 -0.23685189 0.77184093 0.005696137901395559 0.9993762373924255 -0.03485295921564102 214.0 58.0 1.0 1.0
-0.84570611 -0.24898544 0.78244627 0.005696137901395559 0.9993762373924255 -0.03485295921564102 217.0 58.0 1.0 1.0
-0.84349245 -0.24217784 0.8341369 0.013864518143236637 0.9992831945419312 -0.035224951803684235 223.0 59.0 1.0 1.0
-0.84371024 -0.25184417 0.83687967 0.007820994593203068 0.9993487000465393 -0.03522726520895958 223.0 59.0 1.0 1.0
-0.82170528 -0.23992804 0.87315387 0.008223900571465492 0.9989026784896851 -0.04610714316368103 226.0 60.0 1.0 1.0
-0.82453173 -0.25016004 0.87885273 0.008223900571465492 0.9989026784896851 -0.04610714316368103 226.0 60.0 1.0 1.0
-0.82547408 -0.24581635 0.94523609 0.017238887026906013 0.999841034412384 -0.004565986804664135 232.0 61.0 1.0 1.0
-0.83833283 -0.25922322 0.96295792 0.016759352758526802 0.9997784495353699 -0.012733920477330685 247.0 61.0 1.0 1.0
-0.83095503 -0.25276873 1.0293353 0.023018836975097656 0.9997202157974243 -0.005447835195809603 255.0 62.0 1.0 1.0
-0.82828468 -0.26147914 1.0293233 0.023018836975097656 0.9997202157974243 -0.005447835195809603 250.0 62.0 1.0 1.0
-0.83375573 -0.26027632 1.1232042 0.013859218917787075 0.9988682866096497 -0.045498814433813095 255.0 63.0 1.0 1.0
-0.8263306 -0.26751056 1.116879 0.013859218917787075 0.9988682866096497 -0.045498814433813095 255.0 63.0 1.0 1.0
-0.4806655 0.0021489761 -0.63392019 0.19020745158195496 -0.006994003430008888 0.9817190170288086 241.0 0.0 1.0 1.0
-0.48793212 -0.0029255149 -0.6434741 0.19020745158195496 -0.006994003430008888 0.9817190170288086 255.0 0.0 1.0 1.0
-0.52383947 -0.0012131227 -0.6353969 0.13614265620708466 0.005745438393205404 0.9906725883483887 247.0 1.0 1.0 1.0
-0.53399962 -0.0068222024 -0.64773023 0.13614265620708466 0.005745438393205404 0.9906725883483887 255.0 1.0 1.0 1.0
-0.54756165 -0.0042517092 -0.61498684 0.14997148513793945 0.07705526798963547 0.9856830835342407 229.0 2.0 1.0 1.0
-0.56347871 -0.010261189 -0.63288951 0.14997148513793945 0.07705526798963547 0.9856830835342407 247.0 2.0 1.0 1.0
-0.6003859 -0.0075678532 -0.62597126 0.23555691540241241 -0.058882053941488266 0.9700751304626465 238.0 3.0 1.0 1.0
-0.59750259 -0.013805962 -0.62309647 0.23555691540241241 -0.058882053941488266 0.9700751304626465 244.0 3.0 1.0 1.0
-0.6191771 -0.010316984 -0.60155427 0.23542889952659607 0.06745482981204987 0.9695479273796082 232.0 4.0 1.0 1.0
-0.63052851 -0.017105998 -0.61269146 0.23542889952659607 0.06745482981204987 0.9695479273796082 232.0 4.0 1.0 1.0
-0.66606802 -0.013406567 -0.60407072 0.23285090923309326 -0.08611699938774109 0.9686920642852783 235.0 5.0 1.0 1.0
-0.66885942 -0.020478567 -0.60676116 0.23285090923309326 -0.08611699938774109 0.9686920642852783 232.0 5.0 1.0 1.0
-0.7101233 -0.016515017 -0.60222673 0.19644272327423096 -0.049378857016563416 0.9792712330818176 241.0 6.0 1.0 1.0
-0.71907324 -0.024258383 -0.60998231 0.2403741478919983 -0.04888356104493141 0.9694486260414124 250.0 6.0 1.0 1.0
-0.76356322 -0.019737352 -0.606309 0.16141992807388306 -0.04987107589840889 0.9856249094009399 255.0 7.0 1.0 1.0
-0.76645124 -0.027853305 -0.60880095 0.18578512966632843 0.027477674186229706 0.9822060465812683 247.0 7.0 1.0 1.0
-0.81413752 -0.022879578 -0.60598767 0.11901059746742249 0.032326750457286835 0.99236661195755 255.0 8.0 1.0 1.0
-0.80422556 -0.031054728 -0.59884685 0.1219930648803711 0.0323149599134922 0.9920047521591187 250.0 8.0 1.0 1.0
-0.85509592 -0.025972828 -0.59687084 0.13215257227420807 0.02779298461973667 0.9908396601676941 255.0 9.0 1.0 1.0
-0.85806006 -0.035067812 -0.59916615 0.13215257227420807 0.02779298461973667 0.9908396601676941 255.0 9.0 1.0 1.0
-0.90264481 -0.028831076 -0.59062761 0.13106998801231384 -0.13067767024040222 0.9827227592468262 255.0 10.0 1.0 1.0
-0.91568506 -0.038846843 -0.59938061 0.08351335674524307 -0.08311686664819717 0.9930342435836792 255.0 10.0 1.0 1.0
-0.97409064 -0.032787643 -0.5972029 0.15854188799858093 0.3327474594116211 0.9295932650566101 255.0 11.0 1.0 1.0
-0.98051554 -0.043291837 -0.60138726 0.15854188799858093 0.3327474594116211 0.9295932650566101 255.0 11.0 1.0 1.0
-1.0187515 -0.035897385 -0.58440942 0.03519243746995926 0.8885180354118347 0.4574901759624481 255.0 12.0 1.0 1.0
-1.0044473 -0.045953605 -0.57647836 0.03519243746995926 0.8885180354118347 0.4574901759624481 255.0 12.0 1.0 1.0
-1.0172172 -0.037134446 -0.54579443 7.437425665557384e-05 0.9982345104217529 0.05939525365829468 255.0 13.0 1.0 1.0
-1.0308689 -0.048445467 -0.55335361 7.437425665557384e-05 0.9982345104217529 0.05939525365829468 255.0 13.0 1.0 1.0
-1.0070045 -0.03787018 -0.50452167 0.010091353207826614 0.999769389629364 -0.01895810477435589 255.0 14.0 1.0 1.0
-0.99940687 -0.048088599 -0.50095981 0.010091353207826614 0.999769389629364 -0.01895810477435589 255.0 14.0 1.0 1.0
-0.99149817 -0.03838231 -0.46295202 0.010091353207826614 0.999769389629364 -0.01895810477435589 255.0 15.0 1.0 1.0
-0.99466819 -0.048950277 -0.46465188 0.010091353207826614 0.999769389629364 -0.01895810477435589 255.0 15.0 1.0 1.0
-1.0084056 -0.24337815 -0.45085502 0.019946841523051262 0.9986273050308228 -0.048432283103466034 255.0 16.0 1.0 1.0
-1.0058056 -0.2539373 -0.45086887 0.019946841523051262 0.9986273050308228 -0.048432283103466034 255.0 16.0 1.0 1.0
-1.0057433 -0.24166687 -0.41648611 0.02510012872517109 0.9994905591011047 -0.019714608788490295 255.0 17.0 1.0 1.0
-1.0139645 -0.25490052 -0.42097235 0.02510012872517109 0.9994905591011047 -0.019714608788490295 255.0 17.0 1.0 1.0
-0.99106753 -0.23691881 -0.37857366 0.014831260778009892 0.9996075630187988 -0.023765478283166885 255.0 18.0 1.0 1.0
-0.98853707 -0.24729727 -0.37858725 0.014831260778009892 0.9996075630187988 -0.023765478283166885 255.0 18.0 1.0 1.0
-1.0044818 -0.23903638 -0.35241413 0.02685898169875145 0.9994045495986938 -0.021662326529622078 255.0 19.0 1.0 1.0
-0.99457794 -0.24773334 -0.34985015 0.02685898169875145 0.9994045495986938 -0.021662326529622078 255.0 19.0 1.0 1.0
-0.99109477 -0.2349918 -0.31777576 -0.0010250606574118137 0.9998642802238464 -0.016447149217128754 255.0 20.0 1.0 1.0
-1.0034178 -0.2490329 -0.32254177 0.012387440539896488 0.9989871978759766 -0.043255917727947235 255.0 20.0 1.0 1.0
-0.99155909 -0.23422456 -0.28872401 0.007772253360599279 0.999687910079956 -0.02374204434454441 255.0 21.0 1.0 1.0
-1.0040095 -0.24828687 -0.29308739 0.007772253360599279 0.999687910079956 -0.02374204434454441 255.0 21.0 1.0 1.0
-0.98747468 -0.23239167 -0.25880325 0.011389008723199368 0.9990895986557007 -0.04111210256814957 255.0 22.0 1.0 1.0
-0.9849934 -0.24273311 -0.25881678 0.007769981399178505 0.9993957877159119 -0.03387966379523277 255.0 22.0 1.0 1.0
-0.97483075 -0.22874902 -0.22791715 0.011394853703677654 0.9996024370193481 -0.025789618492126465 255.0 23.0 1.0 1.0
-0.9989143 -0.24544224 -0.23412336 0.011394853703677654 0.9996024370193481 -0.025789618492126465 255.0 23.0 1.0 1.0
-0.97652233 -0.22863893 -0.20112827 0.009979406371712685 0.9979982972145081 -0.062449175864458084 255.0 24.0 1.0 1.0
-0.9778924 -0.2397958 -0.20192514 0.009979406371712685 0.9979982972145081 -0.062449175864458084 255.0 24.0 1.0 1.0
-0.98525065 -0.22997987 -0.17570068 0.014411387965083122 0.9973518252372742 -0.07128561288118362 255.0 25.0 1.0 1.0
-0.98662549 -0.2412307 -0.17639567 0.014411387965083122 0.9973518252372742 -0.07128561288118362 255.0 25.0 1.0 1.0
-0.99711663 -0.23240237 -0.15060186 0.014434533193707466 0.9989535808563232 -0.043397869914770126 255.0 26.0 1.0 1.0
-0.96771383 -0.23630722 -0.14656006 0.014434533193707466 0.9989535808563232 -0.043397869914770126 255.0 26.0 1.0 1.0
-0.96582037 -0.22464709 -0.12002612 0.016970152035355568 0.9950324892997742 -0.09809403121471405 255.0 27.0 1.0 1.0
-0.97886133 -0.23850526 -0.12195093 0.016970152035355568 0.9950324892997742 -0.09809403121471405 255.0 27.0 1.0 1.0
-0.99184316 -0.23033504 -0.096735835 0.016970152035355568 0.9950324892997742 -0.09809403121471405 255.0 28.0 1.0 1.0
-0.97390264 -0.23697685 -0.095246486 0.0308369193226099 0.9943450689315796 -0.1016223281621933 255.0 28.0 1.0 1.0
-0.96288443 -0.22332495 -0.068363547 0.030955323949456215 0.9981630444526672 -0.05207907035946846 255.0 29.0 1.0 1.0
-0.96825951 -0.23528618 -0.068923578 0.030955323949456215 0.9981630444526672 -0.05207907035946846 255.0 29.0 1.0 1.0
-0.97207713 -0.22529906 -0.043416131 0.0046458677388727665 0.9991313815116882 -0.04141305759549141 255.0 30.0 1.0 1.0
-0.97744262 -0.2373582 -0.043772336 0.0046458677388727665 0.9991313815116882 -0.04141305759549141 255.0 30.0 1.0 1.0
-0.95336974 -0.220844 -0.017632905 0.024222688749432564 0.9978457093238831 -0.06096907705068588 255.0 31.0 1.0 1.0
-0.94323862 -0.22895417 -0.017506476 0.024222688749432564 0.9978457093238831 -0.06096907705068588 255.0 31.0 1.0 1.0
-0.95756984 -0.042828716 0.0075930124 0.0195621270686388 0.9980553388595581 -0.05918535217642784 255.0 32.0 1.0 1.0
-0.97305441 -0.053735219 0.0077168988 0.0195621270686388 0.9980553388595581 -0.05918535217642784 255.0 32.0 1.0 1.0
-0.96105886 -0.042673156 0.032168817 0.012103394605219364 0.9992558360099792 -0.03662214055657387 255.0 33.0 1.0 1.0
-0.9605692 -0.052750394 0.032156922 0.012103394605219364 0.9992558360099792 -0.03662214055657387 255.0 33.0 1.0 1.0
-0.95193374 -0.042305615 0.056230549 0.0123150534927845 0.9991528391838074 -0.03926704078912735 255.0 34.0 1.0 1.0
-0.97935873 -0.053792212 0.05788184 0.0123150534927845 0.9991528391838074 -0.03926704078912735 255.0 34.0 1.0 1.0
-0.9661091 -0.042780783 0.08191821 0.012298648245632648 0.9978219270706177 -0.06480967998504639 255.0 35.0 1.0 1.0
-0.96959841 -0.053125232 0.082245633 0.012298648245632648 0.9978219270706177 -0.06480967998504639 255.0 35.0 1.0 1.0
-0.94781172 -0.041685533 0.10488755 0.008961468935012817 0.9984956979751587 -0.0540931411087513 255.0 36.0 1.0 1.0
-0.92351443 -0.050351448 0.10222883 0.013658590614795685 0.9978905916213989 -0.06346546113491058 255.0 36.0 1.0 1.0
-0.92104012 -0.040241092 0.12606667 0.008965973742306232 0.9989976286888123 -0.043856315314769745 255.0 37.0 1.0 1.0
-0.96806723 -0.052423131 0.13257641 0.008965973742306232 0.9989976286888123 -0.043856315314769745 255.0 37.0 1.0 1.0
-0.96484566 -0.041631252 0.15741868 0.00878165103495121 0.999366819858551 -0.034478820860385895 255.0 38.0 1.0 1.0
-0.93283033 -0.05008902 0.15224856 0.00878165103495121 0.999366819858551 -0.034478820860385895 255.0 38.0 1.0 1.0
-0.96047539 -0.041140381 0.18226272 0.0073960269801318645 0.999373733997345 -0.03460415080189705 255.0 39.0 1.0 1.0
-0.93645698 -0.04998073 0.17777379 0.0073960269801318645 0.999373733997345 -0.03460415080189705 255.0 39.0 1.0 1.0
-0.91247451 -0.038682137 0.19782692 0.0073876772075891495 0.9982455372810364 -0.05874741077423096 255.0 40.0 1.0 1.0
-0.95887786 -0.050679773 0.20798892 0.0073876772075891495 0.9982455372810364 -0.05874741077423096 255.0 40.0 1.0 1.0
-0.94196272 -0.039271127 0.2301545 0.009082184173166752 0.998026967048645 -0.06212679669260979 255.0 41.0 1.0 1.0
-0.91822833 -0.047958843 0.22444643 -0.013018700294196606 0.9976250529289246 -0.06763778626918793 255.0 41.0 1.0 1.0
-0.92025256 -0.037773479 0.25041252 0.004512642044574022 0.9999613761901855 -0.00755012221634388 255.0 42.0 1.0 1.0
-0.91210938 -0.047035933 0.24830106 0.004512642044574022 0.9999613761901855 -0.00755012221634388 255.0 42.0 1.0 1.0
-0.95161194 -0.038226169 0.28621575 0.01785142347216606 0.9994065761566162 -0.029457014054059982 255.0 43.0 1.0 1.0
-0.94734651 -0.048016533 0.28505236 0.00451238639652729 0.9999046921730042 -0.013049195520579815 255.0 43.0 1.0 1.0
-0.93993169 -0.036977328 0.31009802 0.02125917188823223 0.9986902475357056 -0.046537891030311584 255.0 44.0 1.0 1.0
-0.92432892 -0.046095267 0.30507594 0.02125917188823223 0.9986902475357056 -0.046537891030311584 255.0 44.0 1.0 1.0
-0.92380828 -0.035582937 0.33245152 0.012568913400173187 0.9995681047439575 -0.026563238352537155 255.0 45.0 1.0 1.0
-0.91963875 -0.045092661 0.33108646 0.012568913400173187 0.9995681047439575 -0.026563238352537155 255.0 45.0 1.0 1.0
-0.91465187 -0.034311228 0.35699269 0.012564175762236118 0.999191403388977 -0.038193587213754654 255.0 46.0 1.0 1.0
-0.91053367 -0.04373043 0.35552803 0.012564175762236118 0.999191403388977 -0.038193587213754654 255.0 46.0 1.0 1.0
-0.91201878 -0.033450332 0.38483128 0.004586139228194952 0.9997420907020569 -0.02224469557404518 255.0 47.0 1.0 1.0
-0.9079507 -0.042847194 0.38326606 0.004586139228194952 0.9997420907020569 -0.02224469557404518 255.0 47.0 1.0 1.0
-0.88773346 -0.21184617 0.41515946 0.005361970514059067 0.9999605417251587 -0.007074788212776184 247.0 48.0 1.0 1.0
-0.89608192 -0.22378127 0.42011595 0.005361970514059067 0.9999605417251587 -0.007074788212776184 244.0 48.0 1.0 1.0
-0.89692253 -0.21506049 0.45087975 0.005338503513485193 0.9955841898918152 -0.09372159838676453 247.0 49.0 1.0 1.0
